# 3D point list with one line of data per point:
#   POINT3D_ID, X, Y, Z, R, G, B, ERROR, TRACK[] as (IMAGE_ID, POINT2D_IDX)
# Number of points: 394, mean track length: 4.0430447855673366
4407 0.78156227345685192 1.0558496007225824 8.1819951980551942 88 91 90 0.44894329810366013 7 1908 8 2520 9 4922 10 4875 11 6109
4408 -4.8128643035571432 1.2416943526850825 8.1088643940509488 54 64 81 0.72285397208092594 7 1941 8 2549 9 5000 11 6277
4776 -1.7506967835743357 1.3039366193405622 8.5655948484718447 125 147 153 1.4694027287068032 7 6406 8 6111 9 7769 10 7908 11 6253 9 5064
4409 -4.5777655363155496 1.1408015467617167 7.1332939029506139 122 131 126 0.2702432758505508 7 1961 8 2561 9 5012
5802 -5.8060405842953529 -0.73569061074195818 6.9278348763066866 161 172 176 0.7913835807556312 7 8102 9 7202 10 8397
4411 -4.7100779933146857 1.1490531915760969 6.8030212754134727 96 102 127 0.1905769266662618 3 2140 7 4710 8 2592
5295 -3.4319688926515362 0.58410832270229784 8.5755564020774209 149 150 152 1.1601426782400035 7 10112 8 9587 9 10235 10 10272
4412 -1.6576490631011735 1.3219649676560299 8.5826979386649036 105 108 127 0.42406272313252646 7 4729 8 2653 9 5072 10 4967 11 6266
6111 -3.4915337624610272 0.51124560637906302 8.58218065353066 83 83 71 0.22062348873232485 9 4698 10 2055
4780 -1.6351486606393519 1.3783970894107831 8.5669601013015058 126 152 167 0.5424819717741115 7 6428 8 6133 9 6640 10 6734 11 6298
4413 0.67162527650319559 0.81469246952874064 5.5194449860897041 121 132 144 0.26912497904954769 7 2036 8 2669
6104 0.81696008233347583 0.44467903057247904 8.2863656651508126 108 91 74 0.24489720022393532 9 1904 10 1846 11 2129
5289 -4.5970336308288591 0.094915008084043989 7.0434874984156437 179 176 171 1.6240738452113603 7 10082 8 9560 9 10212 10 10498 11 11720
4414 0.67162527650319559 0.81469246952874064 5.5194449860897041 121 132 144 0.26912497904954769 7 2035 8 2670
4416 -3.4094918276768444 1.3961097519504964 8.2024154269438139 91 94 101 0.16233668166840684 7 2060 8 2700 9 5099
4848 -5.7105019890411555 -0.48632097141546088 6.8895781428651315 183 196 192 0.74623193802040411 7 7135 8 6691 9 7276 10 7494
4417 -3.9763766756069154 1.5298471944124379 8.3127277759620419 18 38 56 0.37599857605478776 7 2140 8 2782 9 5166
4418 -0.92481188586405916 1.4458127826756562 8.6150806042847066 57 73 88 0.53588030457735369 7 2139 8 2806 9 5165 11 3272
5874 -2.0457058577161664 0.012785393527096407 8.7325474608686875 146 144 137 0.67077515240969787 7 8320 9 8354 10 8500 11 9309
4419 -0.86320672023057465 1.4645821368443221 8.6252138003220598 102 112 122 0.41434378147864193 4 2046 8 2824 9 5173
5367 -0.45405933901125128 -2.1089710863295177 10.666866913492564 52 74 88 0.59844943080041613 8 119 9 106 10 322
4420 1.1950336597414744 1.4282322958302862 8.2382860235969471 62 69 95 0.95080562041360561 7 2218 8 2912
4852 -3.4144037121548534 -0.38046878489026659 8.7455150030145354 176 176 168 0.58327929175557025 3 7137 7 7166 8 6709 9 7252 10 7462
4421 -1.6983904756956758 1.4793180299139459 7.7841996305237355 43 62 77 0.33284552036277304 7 2257 8 2914 9 5269 10 5082
5361 -2.7187529783692423 -0.93631612343652437 8.7559195584739822 21 28 37 0.35941997747706106 7 9975 8 9450 9 10115
4422 -1.6983904756956758 1.4793180299139459 7.7841996305237355 43 62 77 0.33284552036277304 7 2258 8 2915 9 5270 10 5083
4423 -3.4769947835587494 1.6609823472975229 7.9498076810469449 53 71 81 0.6376393164511861 1 3120 2 2851 8 2941
4424 -2.5437823778206221 -3.2562019624077396 10.495141228492347 116 111 151 0.58311621497455068 7 3353 8 3135 9 3383 10 3271
4425 -2.5852851511198325 -2.9229908789533803 10.32710803025113 253 254 249 0.62432500523280687 7 3358 8 3140 9 3402 10 239
4426 1.1196814575284011 -2.0859476685794665 9.3664578239921905 127 149 166 0.1122694923892199 7 3380 8 3144 9 3385
5882 -4.751633805630548 0.095717602381024516 7.9326379501115261 63 75 89 0.43166923950433417 8 5696 9 8419 10 8573
4427 -1.8847094312606278 -2.6540875143175362 10.279238236271004 151 128 154 0.30874263271146996 3 3249 7 3367 8 3150
5375 -1.1737451890183161 -1.3493379860333976 9.8351896624573136 117 136 168 0.14868545600184724 8 344 9 357 10 633
4428 -1.9315701395655003 -2.5976698719849338 10.164713279521409 94 93 161 0.52217283400113801 7 3368 8 3153 9 5616 10 5562
4429 -1.9315701395655003 -2.5976698719849338 10.164713279521409 94 93 161 0.52217283400113801 7 3369 8 3154 9 5617 10 5561
5369 -3.0334938448337851 -2.1751165785725024 9.8536552813201261 95 101 120 0.60501958674938416 7 175 8 180 9 198 10 501
4430 0.20746019975136928 -2.3547789166013597 10.628249924884726 69 77 102 0.71887421614837932 7 3385 8 3155 9 5604
4431 -1.8888126026334711 -2.3888052408387428 10.156752773765135 177 188 196 0.62259071943489119 7 63 8 3166 9 3440 10 3351
5158 -4.5356040788531722 1.1409393488531845 7.0165562777315467 123 136 147 1.7939589508260716 7 9236 8 8735 9 9788 10 10351 11 11494
4800 -2.9994776758124893 -2.1655140148648302 9.8587515053499786 178 189 195 0.16922010152984349 7 6818 8 6332 9 6913
4433 0.16730978262887372 -2.0830402074699057 10.582274644662929 170 176 176 0.92582513354866014 7 145 8 3177 9 3437
5667 0.92623241836780279 1.0837110059014343 8.2147661074479377 123 91 77 0.55602862617453674 8 4556 9 4942 11 8237
4434 -0.4695068111967301 -2.1672852288354068 10.699553165185796 135 160 182 1.0517726121536479 7 140 8 3183 9 3446
5826 -4.8180022091962469 0.50835161228763914 8.1740297838645688 108 116 118 1.0774563835848137 8 7014 9 7550 10 8645
4435 -2.3610589484661748 -2.3193124977634429 10.052082055791391 91 95 107 0.76467294221288939 7 3409 8 3187 9 5647
5319 -1.4573938353050726 0.61633494535437439 9.034796250841385 143 143 143 0.38812827727365995 7 10120 8 9820 9 10482 10 10742
4645 -5.0560459308449079 -2.389204313898933 9.4249218587353418 142 154 176 0.25999346200730589 7 5431 8 5118 9 5696 10 5703
4436 -0.63704852248831778 -2.1586958415593576 10.659517201722627 127 149 173 0.89477795402585458 7 149 8 3193 9 3451 10 3350
4804 -2.1517669332327465 -1.414907954876651 8.9435951536345737 187 186 177 0.57989227606207405 7 6857 8 6390 9 6971 10 7186
4437 1.342734778403311 -1.5891697435784118 9.0970646294971171 97 115 131 0.27345359128652597 7 219 8 3200 9 3431
5313 -1.6100069045545853 -0.41197376861707075 8.8790733752114122 182 183 177 1.3507857243076185 7 10258 8 9750 9 10401
4438 -1.4687489968498733 -2.2044759836707564 10.488018945638119 131 146 167 0.45806555399119864 7 3423 8 3205 9 3474
5156 -2.4296193010603693 1.1614205155252888 8.4386120765144312 135 139 143 0.5726049795051652 7 8676 8 8726 9 9308 10 9486 11 11020
4439 -2.1987799451670402 -2.2292815159999391 10.305941297630888 93 94 115 0.55662116111674875 7 3426 8 3214 9 3492
4649 -1.8982398457159995 -1.8739801671400558 10.066706261450216 154 165 169 0.60894052871204696 7 5459 8 5138 10 7125
4440 -5.7070411670519317 -2.5111918148112315 9.0958667325267157 201 202 201 0.72614533294132222 7 3410 8 3221 11 613
5166 -0.16652334504551317 1.6831297031357402 8.7203134415065584 58 75 91 1.3041649709292069 7 8760 8 8798 9 9388 11 11069
4808 1.1622473618749969 -0.90699231716958872 8.5185999641114005 113 128 156 0.82196073486445576 7 6921 8 6423 9 7975 10 8173
4441 1.4518245517177406 -1.4888859464973729 9.0594024949519731 132 163 163 0.31690709105628495 7 231 8 3224 9 3444
5834 0.73836053845043415 0.98479186115289929 8.1773248427965779 124 126 123 0.53580060919857642 7 6332 9 7696 11 9549
4443 1.2691033445701778 -1.3495151422530283 8.7023359030499208 131 116 109 0.56766945382932654 7 257 8 3248 9 5650
5327 -4.5778215666603685 -0.17591153801491616 7.0906179057263525 186 192 193 0.72858980503481596 7 10372 8 9908 9 10596
4653 -0.018195438537157198 -1.2449780571205735 9.6756075277129678 58 80 111 0.48137086827983383 7 336 8 5186
4444 1.1146376277526535 -1.3546612675690597 8.6733471088011651 135 124 102 0.64921629696860073 7 3487 8 3250 9 3484
4812 -1.1945723326125071 -1.20403096768253 9.3873772489870362 166 164 153 0.29049000287401661 7 5535 8 6436 9 6987 10 8220
4445 -1.8230519828945981 -1.9214704006281744 10.096510751744171 154 158 155 0.52255327765929593 7 222 8 3253 9 3522 10 3479
5321 -4.4994401542920608 1.292257573270662 6.7497915751537452 137 150 156 2.539997245415591 7 10330 8 9876 9 10651
4446 -5.5488869164258414 -2.2481200080040593 9.0904895140734077 181 194 211 0.78210021649523587 7 3449 8 3260 9 5714 11 751
4448 1.6483766957849866 -1.2005600621492378 8.9207352731239791 103 126 140 0.41449160223710474 7 3508 8 3285 9 5677
4752 1.6988342374927528 0.49655698764045542 8.4964136439023843 144 149 119 0.98806117738569732 7 6138 8 5827 9 7462 10 8572 4 3736
4449 -5.0115305926770448 -1.7932499686762244 7.6273699748067676 166 190 216 0.56561125919787736 7 3482 8 3294 9 331
4450 -2.2513435580386538 -1.4979117934649793 8.9316442866158905 118 122 123 0.30605092589491728 7 3498 8 3302 9 3596
5778 1.7317130437196611 1.5958104237805317 8.2712042802222498 69 82 91 0.24629593660007454 7 2397 11 9708
4451 -1.064807582946 -1.4527557106801108 9.8796926755608219 57 68 91 0.67995966005911901 7 3520 8 3304 9 3579 10 5737
5271 1.2621695159499147 -0.11868205763834055 8.5611407636937962 62 89 119 0.73453710411038831 7 9779 8 9504 9 10403
4452 -1.6267204702727189 -1.4710043972820712 9.7542693631940409 62 78 98 0.21903067597130313 7 304 8 3311 9 3607
4756 -3.6474880569186907 0.48529481091206883 8.5461827393334424 161 172 174 0.91906923777250749 7 6136 8 5861 9 6372 10 6461 11 8088
4453 1.0002664713385911 -1.0070095614937375 8.5909006336809952 168 179 172 0.32043229047912897 7 370 8 3324 9 3565
5265 1.1150045833783824 -0.25699788802498591 8.5414196153825497 57 86 114 0.87140947054751061 7 10010 8 9479 9 10395 10 10856
4454 -5.0516237902447925 -1.4986172071112065 7.2117574458984084 172 183 187 0.74907821970862776 7 3510 8 3340 9 3724
4455 1.0654654830037755 -0.92919984298542824 8.4805480967356281 123 141 155 0.3464423709532784 7 3598 8 3353 9 3580
4456 -4.9829895178837988 -1.4134588084197177 7.2095622166503563 180 185 190 1.2322237898121384 7 3530 8 3372 11 5075
4760 -5.5567378381750387 0.62791801434582495 6.7188232823577581 185 169 154 1.0559517192662438 7 6211 8 5925 9 6438 10 6523
4457 -0.61825099127636352 -1.1720251587190302 9.5401793512092965 177 178 170 0.37483256539360243 7 3573 8 3374 9 5769 10 5789
4458 -0.72534981373256813 -1.1756596815770419 9.5164588899743734 178 180 172 0.23625582091378478 7 3574 8 3377 9 3679 10 3587
5786 0.98095568747326956 -0.7043237523844107 8.5092850698514066 141 136 115 0.85199922318480747 7 3689 8 6499 9 7004 10 5805
4459 -0.72534981373256813 -1.1756596815770419 9.5164588899743734 178 180 172 0.23625582091378478 7 3575 8 3378 9 3680 10 3588
5279 -1.0910957368114136 -0.090338264570781063 9.2465903338862887 161 162 149 1.2345657987699086 4 9262 8 9529 9 10433 10 10691 11 11949
4460 -5.0178076162538598 -1.3495837096095555 7.3422470369440482 126 150 176 0.6037794088413766 7 5518 8 3409 9 3779
4764 1.736965167523487 0.80929849448510094 8.4441899291530724 142 145 119 1.7473716704291451 2 1972 8 5968 10 7752
4461 -0.76737377035615084 -1.0623152491583407 9.525928466347656 104 97 89 0.13011367072929866 7 3615 8 3429 9 5800
5273 -4.2059041310109331 -0.38784148860667267 8.5651012887096751 96 94 94 1.317127166993229 7 10012 8 9511 9 10173
4462 -4.522213788197301 -1.3038489997501097 8.6551288532713198 119 111 115 0.19496966236823657 7 385 8 3445 9 3814
4463 -3.4525065808403497 -1.2206290171498806 8.8841808492505638 161 163 150 0.25231369475593646 7 402 8 3447 10 3738 9 3790
4832 -2.4488654171460684 -0.60109633102475535 8.7084234247733718 180 174 167 0.62590972067053585 7 5740 8 6610 9 7148
4465 1.624884951857331 -0.71617106902278471 8.6735844331877079 151 134 118 0.3354441010884513 7 533 8 3452 9 3690
4466 -4.4658600576882064 -1.2691727180871057 8.6623053362797737 128 122 126 0.18117791366541189 7 3599 8 3457 9 3823
5858 -4.8002530656033535 -1.3111431652048606 7.7960982957489477 144 147 154 1.7108102366807216 7 7969 9 8040 10 7265 11 7552
4467 -4.9745241450658124 -1.1941828025049492 7.1668073869734039 186 192 195 1.2256498117608343 7 398 8 3460 11 1479
4468 -0.70893033243355763 -0.97711002661917634 9.5585162360388463 87 122 162 0.45475414012455717 7 498 8 3461 9 3760
4836 -4.7630554380427599 -0.69613410673273701 8.4840390976335911 165 163 148 0.92244483460838556 7 7063 8 6625 9 7198 10 6131 11 1892
4469 -3.7690722095718932 -1.1671690559156684 9.0140861334886022 61 82 99 0.35037943969002217 7 3621 8 3480 9 5866 10 5954
5345 -3.1889729614588376 0.14197873610033945 8.6442837377642316 104 121 151 1.1818248979690342 7 10440 8 9989 9 10699
4470 -3.434217883552845 -1.1202233713538425 8.8928810626812513 177 178 172 0.064538711478888927 7 3631 8 3485
4471 -4.6677312306343346 -1.2073201249645038 8.5989899670952905 150 155 149 0.83051981633241634 7 439 8 3487 9 3872 10 3850 11 1385
4472 -2.3519453353938355 -1.0120293495683594 8.844411317907408 183 182 177 0.62861353754140448 7 502 8 3489 10 3747 9 3818 11 1024
4473 0.92024142565089917 -0.68793101823464198 8.5049889662698988 112 100 102 0.58575172505717554 7 580 8 3494 9 5814 10 5817
5866 -1.5531630434897223 -0.50561978549252584 9.1730981968151362 132 123 107 0.51774569117625791 8 7647 9 8162 10 8334 11 10046
4475 -4.9811416763958016 -1.104543946469299 7.1951035378311516 159 190 217 0.91540234673596232 7 5594 8 3500 9 3909
5359 -0.40942056813707112 0.62834499134322686 9.2832303017753333 113 110 110 0.37429685506005544 1 8314 4 7728 8 8615 2 7308 7 8485 9 9158 10 9357
4476 -0.20037787137680846 -0.81685693500994816 9.5968083401026902 165 176 175 0.69141168454007662 7 5653 8 3521 9 5847 10 5883
4844 -2.3567209285927135 -0.41343678351375546 8.7549700286675236 126 116 107 0.43918781092307857 7 7130 8 6667 9 8219 10 8392 11 10119
4477 -0.20049072984705277 -0.81678464745599411 9.5961972033108651 165 176 175 0.78738319931713463 7 5654 8 3522 10 5884
5353 -0.26430512284718288 1.1763237919671079 9.2227450097327939 107 108 107 0.80887833615246107 3 4530 1 5251 8 6062 4 5700 7 6349 9 6539 10 7871
4478 1.2322766554673734 -0.58557736783443781 8.5452427388863281 139 127 114 0.71108604576903234 7 666 8 3546 9 5839
4625 -0.31410722084993731 1.4497504187292358 8.7604865491226835 92 99 109 0.71161949195525243 7 2138 8 4749 9 5162 10 5029 11 6304
4480 -5.1268496218804804 -0.99062056912974195 7.0589430268414404 163 148 145 0.47419555905993005 7 5630 8 3560 9 3985
5142 -1.7971618101017859 0.64349913759393251 8.6507483269171797 126 121 115 0.43212106158405489 7 8506 8 8638 9 9693 10 10276 11 11395
4481 -5.1934299683252201 -0.9916945947250535 7.0475728280722674 155 146 142 0.78016491874005389 7 3668 8 3566 9 3991
5651 1.5380549711684148 0.84117825771621901 8.3841594059809736 73 71 56 0.78131006820491844 8 2317 9 4801 10 4723 11 5876
4482 -0.90009974139091009 -0.77432953490945466 9.3387578199256573 124 154 174 0.14483291755583458 7 616 8 3569 9 3874 10 3770
4629 -2.260330855367664 1.4589478548815191 7.6012521146884175 71 86 112 0.31804013311182122 7 2239 8 4811 9 5245
4484 0.7833086750592555 -0.52250215078686724 8.441385270357328 154 129 112 0.68473463344707941 7 3770 8 3592 9 3859
4485 -4.949942011847094 -0.87025252729398739 7.1521342057924384 147 145 150 0.34118909299999195 7 3717 8 3601 9 1030
5140 -4.1291123853126868 0.6168679039025825 8.4067447133146036 113 102 106 0.27189062345168741 7 8499 8 8632 9 9197
4487 0.95644019737001551 -0.43549717230320478 8.4714112159003712 111 104 96 0.53609041639233379 4 864 8 3620 9 5892
4633 -1.4219912851016052 1.5670155040297165 7.9729426184168606 50 61 72 0.38867164641229945 7 4870 8 4905 9 6720 10 6806
4488 -5.3194165904471538 -0.80970806148675756 7.0169401443430059 190 193 186 0.36241007876475206 4 3125 7 3741 8 3626 9 1114
5150 -4.9168510623409913 0.87170639470604372 6.8440487616082173 178 175 166 0.22410116207474329 7 9197 8 8688
4489 -3.5416434044889167 -0.74861381713292552 8.7240698180015084 142 132 128 0.64237194088235894 7 3754 8 3630 9 4061 10 3991 11 1580
5659 0.79758419709169781 0.96065885749521351 8.2035802898046803 96 84 68 0.30389876453371983 8 4472 9 4878 11 6037
4490 -4.3959921659808137 -0.76554642312752785 8.5179034194783316 141 132 123 0.21482591752443012 7 3760 8 3639 10 4045
4491 -4.4640871735262708 -0.76870153221794146 8.5169626299684253 138 123 118 0.51379696741569481 7 3758 8 3641 9 4098 11 1773
4637 -1.4187012544804345 1.5724194396459747 7.8443352567146034 53 66 82 0.39831163185165258 7 2372 8 4942 9 5385
4492 1.0410668886589436 -0.37030958057942481 8.4693467725316722 175 176 161 0.5317438639210782 7 3840 8 3648 10 5950
4493 -1.7954340398571627 -0.56672372346050703 8.8694782446395966 142 134 128 0.58109259211898689 3 860 8 3656 11 5145 10 3961
5148 -2.2991587665426585 0.75471715430886865 8.6061012924775273 105 125 156 1.3106591135511436 1 10136 8 8660 9 9224 10 9918 11 10949
4495 -3.5137298971255295 -0.6455338473674237 8.7718234111665261 181 177 166 0.13433180536399375 7 3797 8 3664 9 4115 10 4052
4705 -0.63568920037622723 -0.40454647242387609 9.3926635157116731 117 116 106 0.38884465671121821 7 3869 8 5479 9 6011
4496 -4.5555213102577374 -0.68999805567746941 8.4916285238205553 164 162 150 1.1428511493734292 4 3204 7 3791 8 3671
5222 1.1895606986742471 -0.33341538418871047 8.5698553179244517 119 138 151 0.74068760541352185 7 9757 8 9241 9 10129
4497 -0.90540556916105153 -0.37946029031603834 9.3358738277912074 167 172 162 0.35349463967451467 7 3882 8 3705 10 6097 11 5133
5731 -1.949232518437308 -0.57337218070715479 8.8223881920129195 120 116 113 0.62474522291126233 8 5439 9 5990 10 7365 11 9106
4498 -0.90540556916105153 -0.37946029031603834 9.3358738277912074 167 172 162 0.35349463967451467 7 3883 8 3706 10 6096 11 5134
4499 1.5697091608011291 -0.20086064417993868 8.520109971246379 137 117 118 0.43913057507587655 7 5818 8 3708 9 5982
4709 -0.013265682943017361 -0.3456836363853858 9.511173126375887 105 94 94 0.43226864779417856 7 3887 8 5490 9 7158
4500 -3.3149393400494036 -0.50598967881887535 8.783824386830057 169 170 159 0.729685077618488 7 3855 8 3712 9 6056
4502 -0.23924710425741236 -0.32798602754198597 9.4812117072691127 163 164 156 0.26795179215628012 2 1106 8 3719 9 4116
5220 1.1383373360210955 -0.53612471298854047 8.521788462251461 176 174 160 0.55172081182385158 7 9438 8 9227 9 9883
4503 -4.7475177333520202 -0.5356968365637268 8.4652987145807934 164 159 153 0.46011264426742132 7 3865 8 3732 10 4165
4713 -4.3710077898937039 -0.40004524233863181 8.5257503696091828 165 166 161 0.66560211747922071 7 5814 8 5530 9 6112
4504 -4.1108149775933995 -0.49944840368308635 8.6047857216131831 171 174 166 0.42920016748568857 1 6346 8 3733 9 4198 10 4158
5230 -1.7442862343397678 -0.19379755293055329 8.8403881582263164 152 145 138 0.71502580752404665 7 9781 8 9288 9 9938 10 10189 11 11281
4505 -5.6888597408574402 -0.47204149459689565 6.8824092883696011 183 194 187 0.88413610069779658 7 3896 8 3748 9 4250
5739 -1.7669053171033451 -0.15279197450155887 8.8188290954945536 128 125 116 0.19426181730732506 8 5571 9 6125 10 6196
4506 1.5296751229356935 -0.1049266933760626 8.5526884360967816 168 166 147 0.29529201749166489 7 998 8 3751 9 4126 10 3965
4507 1.5559753812534531 -0.087393766205081047 8.5428517779535706 163 165 155 0.087313384387476753 2 1275 8 3761 9 4141
4717 -3.7350452103487415 -0.25300996415392862 8.6538210715951163 175 176 168 0.86832332876717278 7 5859 8 5569 9 6137
4508 -0.67224711092929723 -0.20793730606877414 9.4251528142039938 128 155 182 0.32711118291708718 7 971 8 3767 9 4199 10 6143 11 5230
4509 -0.67035254445438752 -0.1512599828581063 9.4162146765811592 121 157 179 0.54378612180117214 7 3991 8 3792 10 6154
4510 -1.5343936622692689 -0.19182295072638883 9.1619565181688998 131 115 108 0.3419773589805421 7 3985 8 3796 9 4237
5228 -5.3907775471922328 -0.39856790728618585 6.9668620455236505 183 188 182 0.51250858662436816 7 9767 8 9275
4511 -3.6118011136840935 -0.27246439468541994 8.6882040198927442 126 113 121 0.2164104782545235 2 3797 8 3801 10 4208
4657 -2.0833389150237345 -1.2690638492150288 8.9402456235325403 161 157 148 0.25660548414347928 7 5520 8 5219 9 5785
4512 1.6302873866600682 0.015151891652158599 8.5588106342428141 133 119 105 0.84593124706841971 7 1084 8 3816 9 4201
5174 -5.1055611922660953 -2.3550110999726597 9.396182538112134 163 168 187 0.33675202177548802 7 9380 8 8824 9 9428 10 9629
4816 -1.3882645425742453 -0.75544324604100876 9.2121605711623875 123 138 156 0.36491233802093437 7 7006 8 6535 9 7072 10 7293
4513 -5.5436949349248152 -0.3003170487424347 6.8948467638492819 167 158 160 0.52881509868891818 7 3981 8 3818 10 1582 9 1565
5683 1.3835632587707656 1.2100485617119328 8.2515582718114633 107 112 115 1.296921805104271 8 4657 9 5052 10 6718 11 8289
4514 -4.8389387424598844 -0.19874786401977312 8.3474624289848585 100 91 110 0.50349313968266918 7 1029 8 3846 9 6177 10 6263 11 7911
5335 -3.7698637481412498 -2.1788112490611846 9.8780463981836117 102 127 162 1.8975063751577412 7 10417 8 9967 9 10672
4661 -3.2604722689746666 -1.2797923955681658 8.9585386972141574 147 141 129 1.0180951093386179 7 5541 8 5249 10 5886 11 4896
4516 -1.7963492669207499 0.0033669366151650075 8.7869820830265315 177 182 178 0.65911889259098788 7 4090 8 3886 9 6178 10 6245 11 5547
4517 -2.4331950014938184 -0.011127834219106 8.6469973458894014 145 141 138 0.79995247130545877 7 4088 8 3896 9 4335 10 1622
5329 -4.633294088119035 -0.033774582495272827 7.4919881365267411 86 101 123 0.99176846031608545 7 10274 8 9913 9 10603 10 10964 11 12208
4518 1.4522636530880348 0.14162702753967132 8.4470815560350232 93 92 93 0.31686160161807692 3 1243 8 3897 9 6134
5172 -5.3662073523476055 -2.5281620098463295 7.9967679991568996 148 161 203 0.51130440773134433 7 9364 8 8811 9 9422
4519 1.393695814000568 0.1401709438913151 8.4292956467729514 104 102 107 0.84270092981208966 4 3572 7 4153 8 3901 9 6136 10 7468
4665 -4.7794172734233431 -1.2977230495140648 8.0829268912692172 161 164 157 0.63227420714524363 7 5549 8 5274 9 3812 11 5109
4520 -0.27363009415131956 0.087304531540874558 9.4077147526374514 154 163 146 0.772467170518221 1 1695 8 3902 9 6166 7 4106 10 7508 2 3996
5182 -4.7250767839298771 -0.76259294734504868 7.9834123658523835 162 163 165 0.34610678308319665 7 8956 8 8887 9 9526 10 9747
4824 -4.5898173945838501 -0.81804605045393564 7.3598460773353533 110 110 118 1.1535836770025614 7 5675 8 6561 9 8140 10 9156 11 10769
4521 -2.7038901729908131 0.00062486586824483448 8.5785993009137886 152 150 145 0.22555572826673975 4 3485 8 3914 9 4347
5691 -0.77008453697598023 1.4562689525164396 9.0546763003908346 98 108 118 0.27539523799817434 7 4770 9 5121 10 5009 11 6288
4522 1.2655083835250538 0.15404642798637849 8.4014528041939194 151 154 145 0.54755006391544336 4 1205 8 3918 9 6147
5850 -0.55578024064508191 -2.077898136215766 10.621897238276764 108 120 152 1.1523935799101179 8 7377 9 7911 10 8952
4523 -4.6033551611955952 -0.062372815949000841 7.0222672256020671 165 175 177 0.5465090570702178 7 1140 8 3921 9 1712
5343 -0.36110516216678878 -0.91004061523059543 9.5655086004363703 56 85 119 0.84372496385291373 7 10360 8 9977 9 10679
4669 -0.68819622560333937 -0.92412427533309105 9.5619153245669413 125 158 191 0.6509306999305714 7 5617 8 5301 9 7027
4524 -1.2738560657100222 0.085080242440079279 9.2374677367208786 87 102 143 0.23637630558221376 4 3528 8 3931 10 6261
4828 -4.6543061996956441 -0.72585245589587055 7.1649574324104908 197 197 196 2.111985725512779 7 7040 8 6598 10 6109 11 1912
4525 -4.5869793953374991 -0.036845313332156335 7.2479809438795737 158 174 174 0.42087304448075852 7 4102 8 3938 9 4418 10 4354
5180 -1.5917162570373089 -0.59430707105047453 8.9233760727530136 184 181 169 0.25759872322625205 7 8968 8 8885 10 9724
4527 -4.5531182575749094 -0.007155735346811797 7.0639531854401794 125 130 134 0.47811959911346547 7 4140 8 3955 9 4434
4609 -2.1740547477033454 1.1967032192255291 8.575205305224614 111 135 151 0.29099571597504892 7 4667 8 4554 9 4981
4528 -0.4955883073892341 0.15931808524089955 9.3399586452306469 158 158 138 0.30852551855214377 7 1216 8 3959 9 4352
5126 -4.7364511377635052 -0.00063933314403838491 7.8598257135270337 157 163 156 0.98773946183969641 7 8339 8 8532 9 9622 10 9826 11 11371
4529 -1.5269586095926087 0.15199437375023739 9.0995250885391226 162 167 154 0.56269933295400354 7 4186 8 3983 9 6234 10 6308 11 7867
5635 -0.26192083130977512 0.59272002221308306 9.3110067758136257 58 59 61 0.10490922515288274 7 1546 9 4659 10 4574
4530 -3.5673669717350811 0.088361487429335556 8.6443801577233188 99 94 101 0.6931541378892162 3 4003 4 3541 8 3990
4531 1.5030884561690887 0.254363828257402 8.484658159333053 135 118 111 0.55764987383925468 7 4223 8 3994 9 6197
4613 -0.28889739104822593 1.3248649703906401 9.1954521368653079 65 75 75 0.36806762095282297 2 2302 7 4711 8 4626 9 6612 10 6701
4532 0.79233072850894226 0.23845479852211476 8.3178731002310595 153 132 113 0.53861321342284407 7 1298 8 4001 9 4366 10 4270 11 5407
4534 0.85412634030515233 0.26650905052464763 8.3275387965693586 138 117 109 0.65229309185961071 7 1332 8 4027 9 4384 10 6272 11 5421
5124 -1.5206407970381921 0.037612839123813427 9.118075984647156 160 156 147 0.58212327205121439 7 8321 8 8524 9 9066 10 9263 11 10182
4535 1.4966914494993322 0.31003557617048089 8.4754429046311124 92 88 93 0.17121814083237286 7 4259 8 4036 9 6227 10 6259
4617 0.74230379982917893 1.217859190647012 8.1368471783267875 134 137 145 0.20864099498786251 2 2320 8 4664 9 2700
4536 1.6205853591514325 0.31358149704157456 8.5025706330048436 73 78 84 0.82145015968918411 7 1375 8 4038 9 4377 10 6257
5134 -4.5626165434027097 0.53872836886885855 8.3264415106774443 154 150 147 0.75834533865194964 7 9118 8 8607 9 9185 10 8656
4537 0.8094553130284089 0.2898349991784942 8.3155062362390009 94 88 87 0.49450417453025092 7 1372 8 4046 9 4411 10 6295
5643 -5.4121037961173233 0.4234078293539012 6.8012357819459535 157 156 150 0.53440644811681548 7 6153 8 4236 9 4719
4538 -4.3217274324489727 0.22567428128406358 9.5045146002131986 163 170 172 0.33678435055632805 2 4066 8 4060
4539 -4.7996243305655168 0.19520310001400815 8.3240365565300198 100 110 101 0.5862789869830245 7 6042 8 4069 9 6294 10 6390
4621 -1.9801820709997131 1.3558868691081438 8.2099895061889683 112 132 150 0.49499300440877558 7 2079 8 4692 9 5109
4540 -0.59685790614212064 0.3175845882638087 9.2461058113257035 155 164 162 0.87328736235634008 4 1300 8 4073 11 5616
4541 -1.0044678807393603 0.30937670812286483 9.1711908575157253 162 171 174 0.44759993681276211 3 1336 8 4078 9 4490 10 4420
4542 -5.192006285675749 0.18208983957212932 6.891064319058871 174 175 167 1.0082841929243098 7 4253 8 4086 9 4568
5132 -4.715021125489554 0.35966919357667626 7.7111148847160154 101 92 101 0.80927984362479277 8 8586 9 9656 10 9865 11 11399
4543 1.7258155294561734 0.39308753718957207 8.5048288851262939 148 142 110 1.4553888075118362 7 1416 8 4101 9 4442
5926 -0.89557698738020075 0.050635891609266973 9.2711620317705865 141 141 136 0.089654007318460405 7 8324 9 9058 10 9255
4689 -3.7797498004715542 -0.92056841642188325 8.7698491798437477 182 187 190 0.32266122239895806 3 5509 8 5375 9 5927 10 3934
4544 -1.2464881601554121 0.3370953162067819 9.1162167564234799 151 144 123 0.39102210544261956 3 1359 8 4102 11 5699
5206 -2.5142732665014282 1.1627739660440186 8.3566394527338996 144 162 169 0.61676920444688155 7 9603 8 9118 9 10052 10 10348
4545 1.7089125338665223 0.39556422642222394 8.5117077456367163 102 91 99 1.0860614697430249 2 1656 8 4103 9 6258 10 7571
5715 -0.33551341102573662 1.7308865134840159 8.6843307266337284 76 90 99 0.92637915882299426 8 2998 9 5409 10 5177 11 6543
4546 -4.6305565491830203 0.26201517411718661 7.4660683489377586 143 144 146 0.7654717158174611 7 4280 8 4121 9 4586 11 5921
4693 0.81720031507609425 -0.43242573648699434 8.4260498812416635 185 184 165 0.45777896688674807 7 3820 8 5412 9 3930 10 5933
4548 0.96258455383235597 0.43093556555721735 8.3202704119132935 162 158 146 0.74593223716001977 7 1466 8 4145 9 6285 11 5567
4549 -3.4690894122185632 0.36963349579053806 8.6104127227339617 154 153 155 0.59187320191694492 7 4308 8 4147 9 4601 10 4550
4550 -2.5691215816556721 0.39147801992301212 8.4664120867446417 173 176 175 0.24909870489956665 7 4318 8 4160 9 6327 10 6411
5925 -0.26647975573835037 -0.070605515734009028 9.4323082688712834 138 133 130 0.45338824453822929 4 7540 7 8279 8 8490 9 9030
5204 -4.7746563836776472 1.0166911577286142 8.2052269260275672 83 80 89 0.28908479766961076 7 9198 8 9094 9 9756
4551 -2.5700944908708223 0.39015271393439549 8.469192265828374 173 176 175 0.67479706445030052 7 4319 8 4161 11 5855
5934 -0.40344165279050731 0.45799532468157145 9.3190770953401039 101 86 89 1.2253150310457204 7 8438 8 7940 9 9131 10 9840
4697 -5.4446189393686488 -0.73139277970985672 7.0015358489926633 145 141 162 1.1159891052269582 3 5551 4 6191 8 5438 9 6034 10 6133
4552 -1.7999138840939226 0.40741390126337645 8.63798498866187 169 174 169 0.62913892790986203 7 4321 8 4162 9 6310 10 6403 11 5788
5214 -2.2502041706731526 -1.3172264091390011 8.8978252786506751 171 173 171 0.71786587786379186 7 9689 8 9194 9 9867 10 10104
4553 -3.4921216750428239 0.39272007470531584 8.5972561074602663 111 106 113 0.47543540827147873 7 4317 8 4164 9 4625
5723 0.97252031929189031 -0.90248264514110565 8.4546378102947521 99 105 107 0.72927476185441564 7 5570 9 5734 10 5705
4554 -1.5644629369710719 0.44187878285374521 9.0477880050241719 94 93 97 0.77921614893644942 7 1449 8 4169 9 4590 10 4536 11 2399
4555 -4.7508299295867715 0.36308906107481748 7.9344844934742493 109 102 95 0.33573120594461736 7 4315 8 4170 9 6355
4701 -3.942600415820098 -0.66019799073461016 8.6420813175403559 183 183 175 0.56579238767742657 7 5739 8 5454 9 7182 8 6619 11 7730
4556 -4.7508299295867715 0.36308906107481748 7.9344844934742493 109 102 95 0.33573120594461736 7 4316 8 4171 9 6354
4557 -1.4736939145763031 0.46680222102645541 9.0136409559166122 130 124 124 0.42621617535843348 7 1473 8 4181 9 4608 11 5779
5212 -5.3698476075808275 -2.411353001256801 7.9783949317369656 134 151 176 1.0620944460912962 7 9672 8 9183 9 9846 10 10090
4559 -1.4170463538826448 0.48156145838642084 9.0386940792498542 143 144 130 0.89530192155006938 7 1486 8 4189 9 4617 4 1410 10 4554 11 5785
5942 -2.3358090447258082 1.1123573779494802 8.5439057373142848 74 69 68 0.19419965486114141 8 8713 9 9296 10 9474
4769 1.4608665710749318 0.98165051046798102 8.3444616256267832 121 107 101 1.4048499034296984 7 4601 8 6036 9 7679
4560 -1.5411903295169942 0.47151419138504547 8.7497872810121358 160 164 158 0.27674898732538106 7 4354 8 4196 9 4628
5286 -4.7262414730547926 0.059564068269113667 7.7991797714222075 153 157 161 0.57248142135569879 7 9802 8 9548 9 10206 10 10722
4561 0.021021199054192096 0.54238668004838775 9.3793544197360035 85 81 80 0.7337175935359056 7 1508 8 4203 9 6328
4563 -1.6563440487306409 0.48861978709412163 8.7264650406115969 143 134 129 0.79024267651342106 7 1505 8 4212 9 4648 10 6435 11 5835
4773 -2.2590508128740385 1.2163918176390225 8.548108391853706 79 76 89 0.32524890770424175 3 4605 8 6088 9 6584 10 6661 11 8321
4564 -1.5335212203181583 0.49286026358429225 8.7526885854276539 116 112 109 0.89952478307681893 7 4363 8 4214 10 4566 9 4645 11 5830
4566 -0.59486945877761788 0.54893643407444426 9.2455129759546306 145 148 129 0.79021327905906846 7 4373 8 4218 9 6346
5941 -2.3358090447258082 1.1123573779494802 8.5439057373142848 74 69 68 0.19419965486114141 8 8712 9 9295 10 9473
5284 -3.6973272561719948 -0.0069055357476514225 8.619338164605967 165 167 161 0.57314803613397225 7 10066 8 9543 9 10196
4567 -1.0795626551558208 0.54597444164482978 9.1163115498671345 176 181 184 0.61376592097852034 7 4377 8 4231 11 7985
5950 0.94666626407423959 -0.70063181650740225 8.505071203279595 99 91 85 0.63326755847195959 7 8943 9 9467 10 9653
4777 -1.739747290343518 1.3001658068745812 8.5404756236205497 125 147 153 0.66441630220478431 7 6407 8 6112 9 5065
4568 1.7114530201667861 0.56675869589126238 8.4834369370490936 95 91 82 1.3352845209868363 7 1553 8 4234 9 6320 10 6398
5803 -1.7986375092388949 -0.3619572025866612 8.8513668951444675 153 155 147 0.9851613540161277 7 5802 9 7213 11 7670
4570 0.96545736180941477 0.55433780118124687 8.3129899795869164 121 111 103 0.58622367548105048 7 1559 8 4247 9 4636 10 6413 11 5675
4571 -0.91517750974737067 0.69442227203643137 9.1581964827226745 124 113 108 0.45015387616057795 2 1849 8 4286 11 5888
4781 -1.0007351277454846 1.441292632881876 8.9700941194029333 109 130 153 0.46150660315143105 7 4763 8 6145 9 6647
4572 1.4634112261769692 0.67504813606428971 8.3989156127038385 98 90 94 0.7040340409698751 7 4445 8 4291 9 6380 10 7702
4573 -4.7824406182814645 0.66317384204738039 8.2588495735111369 92 81 97 0.55827004869340713 7 4425 8 4292 9 4769
4574 -1.0317105490100533 0.71355228398549331 9.1190653025382389 103 94 101 0.31488775763010157 3 1617 8 4295 9 4739 10 4652
5949 -5.6180673934294454 -2.1664243662383695 9.3586243295423071 99 112 139 1.662586352780308 8 7425 9 9435 10 10102
5292 -1.4981245826663105 0.29636047627942486 8.8586754062832327 101 98 92 1.7327861118098871 7 9808 8 9568 9 10612 10 10965
4575 -0.40430397349825897 0.72948519103560072 9.2724228742132961 86 86 90 0.50861833908226872 7 4437 8 4297 9 4728 10 6486
4721 -3.5319135931833547 -0.15120132994072871 8.6853871255739215 115 104 110 0.34185775159731313 7 5896 8 5592 9 6163 10 6244
4576 -3.5211111696930346 0.68716033544983224 8.5508443605471349 97 85 99 0.48781560235017768 7 4433 8 4300 9 4764 10 4686
5238 -1.7250308848177107 0.62440079202634191 8.680374609573299 164 165 159 0.63690637267098182 7 9828 8 9333 9 10001 10 10267 11 11731
4577 0.99443487030844846 0.69921570995999338 8.2912616011398423 144 132 116 0.15326777472803349 7 1670 8 4311 9 4733 10 6477 11 5801
5747 -1.6772265193446447 0.14335289641878793 8.7887552791430323 152 151 148 0.23884842606372489 8 5674 9 6238 11 7874
4578 0.99443487030844846 0.69921570995999338 8.2912616011398423 144 132 116 0.15326777472803349 7 1671 8 4312 9 4734 10 6478 11 5802
4725 1.5673360358290274 0.14224104260446413 8.4724829010559031 102 105 110 0.31602755231233198 7 4148 8 5621 10 7463
4580 0.90348003735905613 0.75430341566233516 8.2621096009333854 109 104 101 0.78531524596077595 7 1709 8 4355 9 4768 11 8037
4581 -1.5914572872057953 0.83242395740001962 8.9726819549029049 80 72 83 0.35028027977571102 7 4491 8 4362 9 6442 10 6534
4582 0.99866885614371592 0.77163743350469294 8.2821754983119806 130 129 111 0.43223001447763648 7 1716 8 4363 11 8040
5236 -4.6928894646065773 0.54188229942349309 8.290608250394996 137 136 142 0.93052055553863666 7 9823 8 9331 9 10000 10 9890 11 10947
4583 -4.2258647749977367 0.81410742734229946 8.3641319500933662 98 87 89 0.63812336154539995 2 4435 8 4364 9 4822 10 4760
4729 -1.5305870378936521 0.12123529982790987 9.1054700835743709 108 98 106 0.40908908763056151 7 5981 8 5660 9 6222 10 6300
4584 1.48788022114665 0.81781231756286843 8.3823655635644272 126 113 97 0.86594988392582062 7 1736 8 4385 9 4791 11 8034
5246 -3.4226428556071111 1.2533209597573958 8.4652784918761945 117 126 133 0.5803169689782115 7 9896 8 9377 9 10057 10 10353 11 11483
4585 1.5814206405141611 0.82633497390658561 8.3752981595362623 112 109 114 1.7956155684794599 7 4523 8 4388 10 6522
5755 -2.4759522868826882 0.48276232146247261 8.551482003278549 128 122 106 0.64095685369759503 8 5854 9 6363 11 8052
4586 -4.245004707906201 0.93862075471433071 8.3344783600081733 132 144 135 0.45183196016310717 7 4541 8 4408 9 4856 11 3040
4587 -4.8157538576386916 0.95619235403860015 8.1527788351023389 76 72 93 0.66321619173008328 7 1775 8 4414 10 6586
4733 -1.4528203172259866 0.23998167528573094 9.1012272425420377 152 153 148 0.39472718576111732 7 4225 8 5709 9 6262 10 6340
4588 -0.84538611785966433 1.0031722095356792 9.1285326504371049 122 123 118 1.0694169607403343 7 4559 8 4427 11 6050
4589 -0.3928680857396411 1.0309380311386183 9.2104124244116115 133 144 140 0.5517530797051815 7 4566 8 4435 9 6493 10 6593
5244 -4.563955252700425 1.096028098471459 7.2158480251643553 77 91 117 2.238487708681447 7 9889 8 9370 10 10574
4591 1.7148945162436851 0.93629255188923333 8.4118183329348426 104 98 93 1.024043780528922 7 1803 9 4843 11 8092
4592 0.81671916715583859 0.92708880532358862 8.212586990643997 99 90 90 1.0582347476046712 7 4578 8 4446 9 6491 10 6583 11 6017
5190 -4.4370078775674093 0.14300506345080435 8.4456246177354899 56 72 85 1.2094485439814133 7 9515 8 8978 9 9118
4593 1.5564605701904461 0.95784752949963714 8.3723627537756506 132 125 104 1.1936740485174606 7 1825 8 4454 9 4858 10 6584 11 8117
5699 -0.25088595663630031 1.5239851019066524 8.7669746487427034 50 67 83 0.8388308126497267 8 2881 9 5209 11 6365
4594 -4.2411099662876044 1.080804296760995 8.3090313928899775 130 140 132 0.31273128519683185 7 4592 8 4470 10 4854
4595 1.0017933956907838 0.97910716222044347 8.2529407322411714 127 124 111 0.67972239785368926 7 1850 8 4482 9 4889 11 8171
4677 -1.9279473807057126 -0.91938014668171086 8.9261431229492878 93 96 109 0.41997543857369612 7 5632 8 5325 9 5869 10 5932
4596 -5.8007026513081259 1.0524554531256456 6.6149065998211398 209 205 201 0.61102403237622349 7 4641 8 4498 10 4871
4598 -4.7440672094259186 1.183304985768503 8.1777382289020597 77 79 91 0.58880868604809233 7 4638 8 4514 9 6562
5188 -1.7391456422598812 -0.087502356101500867 8.8192798429797303 148 141 133 0.47750796905774695 7 9497 8 8950 9 9952 11 11297
4599 -5.6867837669792749 1.074935953988007 6.6362917952532365 176 161 152 1.52290013283447 2 6368 8 4515 10 4890 9 6578
4681 -4.6461516037945545 -0.97974771474097311 7.1776352390201899 163 153 141 0.46119991673676064 7 5623 8 5344 9 5913 10 6022
4600 -4.521324508971075 1.0588038443041021 6.9045731314659271 100 104 114 1.198988815254779 7 4656 8 4526 9 4970 10 4893 11 3227
5198 1.271175941978216 0.66347166731610041 8.4026825041994329 110 129 141 0.45876128559714519 4 7760 8 9032 9 9679 7 9151 10 10259 11 11356
4601 -4.521324508971075 1.0588038443041021 6.9045731314659271 100 104 114 1.198988815254779 7 4655 8 4527 9 4971 10 4894 11 3226
5707 0.77562868977797528 1.4347930928333577 8.0875710865123267 112 122 132 0.28885397456823225 8 4842 9 5276 10 5119
4602 -2.4839950084201252 1.1423794326339254 8.4147358223917763 126 141 148 0.43804311596770762 7 1891 8 4528
4603 -4.9846045512417572 1.0828994717456626 6.7886380626748188 147 136 130 1.1593795563021034 7 1936 8 4537 9 4989 10 2450
4685 -5.3809997649240051 -0.99095436788512281 7.0047861091114108 154 150 147 0.18865106242515017 7 5638 8 5365 9 5942
4604 -4.2379916347366757 1.220350609914487 8.2846358810282918 121 141 132 0.2499229247027972 7 4658 8 4540 9 4984 10 4914 11 6250
4605 -4.2408211656653032 1.2208628589002395 8.2881484107159196 121 141 132 0.16757861976618141 7 4659 8 4541 9 4985
4606 -2.4792042664556244 1.1704819190594595 8.3963127584390964 131 144 153 0.76778374781558978 7 4661 8 4544 9 6571 11 8313
5196 -2.5303040844230775 0.52939035052889005 8.4719898003011487 167 171 170 0.7925488372842604 7 9117 8 9012 9 9670 10 9872 11 10920
4607 1.6505379964400413 1.0904908054338394 8.3719664403938445 122 111 98 0.78819566203080627 7 1925 9 6545 11 8203
4608 1.6478961661501808 1.0926904164229285 8.3897236839673415 122 111 98 0.65375112097130939 7 1924 9 6546
4610 -4.9202246789850346 1.1558693668572551 6.7869537269457467 102 106 129 0.53987244654951738 7 4706 8 4589 9 5032
5554 -1.1917310926990021 -0.83690732282500013 9.3602941090434495 138 143 147 0.51716273789349376 8 3549 9 3858 10 3764
4611 -0.89307816803646611 1.2998430294667949 9.0568406748538965 122 139 133 0.56558111240976461 4 4118 8 4612 9 6606 11 6211
6071 -0.90442861695046495 -0.27709478401368648 9.3222676889040574 92 72 65 0.58967206433736941 3 5753 2 5658 4 5098 7 5824 9 7221 3 7174 4 6420 7 7178 8 6694 10 8389
4612 -4.6031589335378751 1.2249420083655371 7.2249304422395388 59 74 95 0.52584309628052106 7 2008 8 4614 9 6619
6065 -0.26280912483986096 0.63347990587691061 9.3165683782413176 120 119 117 0.14653534754831898 3 8541 1 9347 9 9159 4 7729 7 8489
4614 1.4321486880620957 1.202440278468202 8.2886751419685343 81 83 103 1.2025805774208704 7 2026 8 4639 9 5046 10 6710
4615 1.4321486880620957 1.202440278468202 8.2886751419685343 81 83 103 1.2025805774208704 7 2025 8 4640 9 5047 10 6711
4616 1.2128480539849584 1.2035672769277812 8.2122560735896108 114 124 126 0.76669506880834459 7 2033 8 4649 9 5050
4618 1.3713280543853599 1.2286833137822575 8.273574540568573 99 88 90 1.3498142929471106 7 2041 8 4667 9 5071
5562 1.4668509000923282 -0.37763379348924264 8.5820930237253688 92 80 94 0.43501044008313738 8 985 9 3915 10 3739
4619 1.4409474359768326 1.2469038503546179 8.303837973381837 132 140 107 0.90302806590851104 7 4749 9 5083 10 6731
6079 -4.5528708010105712 -2.5745406118528642 9.8896054085390954 139 124 181 0.60557187669993828 3 42 7 74 10 490
4620 -2.0869694052895857 1.3572590487984659 8.1918537776095377 127 154 171 0.31650651051971856 4 2019 7 2075 8 4688 9 5108
6073 -5.3637661835548283 -2.5752339274204763 8.00194778348874 109 115 163 0.42457992550532347 3 7969 2 7715 4 7135 9 7923 7 6780 8 6288
4622 0.77396451433469093 1.2855014809369316 8.1066335549132322 112 113 135 0.51234010494763793 7 2103 8 4729 9 6654 10 6754 11 8354
4623 -1.8512388078456876 1.4064376062723734 8.1762443615069635 55 66 81 0.4345413937454134 7 4796 8 4737 9 5158
4626 -1.9138935014240837 1.4344464952737908 7.8320465015079561 68 82 109 0.52000116188135204 7 2192 8 4781 10 5046 9 5204
5506 1.5736426277177304 1.0023133959893138 8.3518061943822222 107 94 94 1.6618199235004223 8 2463 9 2437 11 6018
4627 -4.7911298273432354 1.6309857972803865 7.9148763672154292 88 105 125 0.48030041408595248 7 4836 8 4784 9 5226 10 6762
6023 -4.1818908780419592 0.89239783549652885 8.3606861375046719 64 65 67 0.15350302812804753 8 9645 9 10280 11 11796
4628 -3.4884873821494402 1.559754502711632 7.9929123282265477 95 102 121 1.6285738234305192 1 5585 8 4787 9 5217 7 2210
6017 -3.4274620329451921 0.69314430077219769 8.5511081890571052 122 128 129 0.3779022726506831 8 9609 9 10248 10 10531
4630 1.2751342236129186 1.4078021843164836 8.200865504919868 130 140 142 1.1583921296334685 7 2204 8 4818 10 5102 11 3292
4631 -0.82064884321569964 1.5611978800767885 8.6181407176747751 98 118 125 0.76439560934926609 3 2267 8 4822 9 5249 11 3332
4632 -2.253354813552733 1.4897793438060805 7.4371023193792567 66 84 108 0.5934777154299542 7 4859 8 4858 9 6702 10 6778
5514 0.78066495682346604 1.0800112785130278 8.1774790099970573 64 65 60 0.3849831266456793 8 2553 9 2547 11 3005
4635 -1.4774098819791657 1.5579400434821327 7.7538220019390263 52 60 76 0.64391044035478862 7 2363 8 4934 9 5382
6031 -0.85164509835238733 1.6700193293113672 8.5785196359899309 44 51 69 0.34480386922499012 8 9711 9 10349 10 10613 11 11859
4636 -1.4774098819791657 1.5579400434821327 7.7538220019390263 52 60 76 0.64391044035478862 7 2364 8 4935 9 5381
6025 -4.1892662973514723 1.0275659393574892 8.3448800987656977 78 71 76 0.37233323871800739 8 9663 9 10294
4638 -1.4307227349456495 1.7459872624893691 8.8015085328981684 46 64 84 0.95442311387372269 7 4881 8 4944 11 3427
4640 1.0001736049473424 -2.2340299293323875 9.4294157524172455 100 83 188 0.17627695089902948 7 3364 8 5049 9 6855
4642 1.3563101414048653 -1.6193201750272963 9.1235837927579908 52 80 104 0.10340609607000613 7 5448 8 5095 9 6877
6349 -1.3477509516638659 0.61126450402748345 9.0570398955082183 116 125 106 0.65494280827226115 7 9129 10 9876 11 10902
5458 0.92471282064016092 0.4251496544331525 8.323433901715978 100 88 76 0.97776329276272189 8 1862 9 1861 11 2081
4643 -2.38899425474861 -2.2339104299075525 9.9788842564177305 103 115 152 0.34131326472195073 7 5428 8 5101 9 5662 10 5645
6342 -0.71640585518065603 -0.36932255300544004 9.3562983153478747 139 139 118 0.42084267649939422 9 9527 10 9738 11 11238
5975 -4.6888872387003397 1.2349884726958444 7.5735731113963602 88 102 113 1.0633814389994896 7 9240 9 9793 10 10001 11 11495
4644 -2.2147298014722638 -2.1975203791488247 9.9920068613926762 113 124 155 0.50921976612134134 7 5430 8 5102 9 5663 10 5643
5969 0.97670386010817778 0.73429446189294445 8.2777016165110666 138 132 118 0.36317539047734471 7 9163 9 9702 10 10279
4646 -5.1255980984173561 -2.4189812254089205 9.7631628340400773 195 199 201 0.46709293707947364 7 5434 8 5123 9 5697
6337 -1.5397598617230746 1.4240632108571825 8.555881690406105 63 65 72 1.057039090308878 9 9357 10 9527 11 10472
4647 -3.0648662755807461 -2.0365849581229214 9.8219003118702162 168 178 188 0.23182347581104043 7 5454 8 5132 9 5699
6346 -1.561912743956253 0.42177919177958179 9.0406742413374417 95 93 81 0.69348904067263106 9 9644 10 9845 11 10878
4648 -5.4929505539647794 -2.241830562968087 9.1246552955098839 197 195 196 0.43027077675181596 7 5445 8 5136 9 5715 10 5763
4650 -5.523318639449986 -2.1155636826549027 9.0927543868117002 163 170 185 0.44618611773474243 7 3470 8 5149 9 5725
5977 -4.5425699526368337 1.2737636601680755 7.0002059474297482 82 98 113 1.0799180538043764 8 8762 9 9802 11 11054
5320 0.64785916565917079 0.87493750305778328 8.2195598027607204 158 162 163 1.7686214532467199 7 10390 8 9851 9 10633
4654 -1.993558564997556 -1.3812944765208304 8.9613741746850728 169 165 156 0.44153396955935875 7 5493 8 5188 10 5788
4655 -0.35494035680570934 -1.3103076043385189 10.001038792994475 119 146 168 0.50353203852521211 7 5504 8 5189 9 5731
4658 -0.81777132032535926 -1.1823597141517272 9.4790002791705135 163 159 140 0.18839486719686113 7 5537 8 5221
6365 -3.6803568604288439 0.68872501904137995 8.5167502630486531 124 127 116 1.0366546413584055 9 10252 10 10289 11 11420
5538 -5.5002019213661884 -2.1486120403904647 9.1804409413992687 181 186 186 1.0072068477513874 8 3279 9 3576 10 5783 11 7294
4659 -4.7343540083581344 -1.3952074802252521 7.9932325966258801 169 173 173 0.63754412385723513 7 3550 8 5234 9 5835 11 7491
6358 -4.5972650492944283 -0.34541755863031148 7.359311217571932 162 149 143 0.92059742874674766 9 9575 10 10199 11 11692
6055 -5.0036031691626981 1.3301669156124498 6.8017050526967324 128 131 140 2.0760718013472843 8 9954 9 10650 10 10922
4660 -2.4032245989242194 -1.2268075438784067 8.8619794961808509 170 169 168 0.39428728107072303 7 3572 8 5236 9 5806
6049 -1.3798689008725129 0.19459154023989986 9.1757265079033772 48 62 73 1.1609351618221906 8 9792 9 10604 10 10877
5328 -4.5309701467819297 -0.12365118705778659 8.4888627528737963 115 123 158 0.43509902249847798 7 10374 8 9910
4662 -0.5588260916022737 -1.0581108199486424 9.5565935809930824 163 166 149 0.3682402177283024 7 5575 8 5260 9 6998
6353 -1.7947073320947093 0.78682177440366385 8.634630740629138 92 96 82 0.49832888702957873 9 9231 10 9920 11 10951
4663 -0.79211273883148736 -1.0648276813191078 9.4732159985235249 152 150 138 0.40625190271830136 7 5573 8 5262 9 5799 10 5834
6362 -0.70365235387863623 0.62668711379366826 9.2051122966112562 117 122 110 0.82685705364064666 7 9549 8 9016 10 10258 11 11375
4664 -1.433400154697626 -1.0894418488482818 9.3375897674526076 168 163 153 0.67064634732399231 7 3610 8 5269 9 3745 10 3661
4666 1.4255685141884022 -0.69382874816074691 8.6247794267454658 158 156 146 0.52315320787985475 7 3685 8 5292 9 6995
5546 -4.9908764359709572 -1.4174139960067795 7.3266450483635293 96 109 128 2.1229466805550938 8 3376 9 3756 11 1250
4667 -3.7418914121284432 -1.1761040810798407 8.8388826023598437 162 162 152 0.46518924352676311 7 5580 8 5293 11 7483
6063 -5.0615960446613784 1.2978320591671784 6.7371058237203769 21 22 40 1.4556202452627287 7 7732 8 8208 3 7832 1 9604 4 7031 7 4766 8 4666 9 7787 10 4982
4668 -3.8302699031954597 -1.1716289306015246 8.8004721238370394 179 175 163 0.32065424464982867 7 5584 8 5297 9 5864 10 5948
6057 -5.6235590108126097 -0.66984794230500211 6.9462892231935873 123 126 142 0.68882618851608968 7 10471 9 10690 10 10955
5336 1.1790474464873359 -1.1491779367729815 8.7042312320320629 138 161 177 1.2806894518926066 7 10358 8 9969 9 10669
4670 -0.68819622560333937 -0.92412427533309105 9.5619153245669413 125 158 191 0.6509306999305714 7 5618 8 5302 9 7028
4672 -4.574408548184226 -1.1955647491552712 8.6433651359384847 163 160 143 0.85447438862389991 7 5589 8 5304 9 3877 10 5974 11 5140
