# 3D point list with one line of data per point:
#   POINT3D_ID, X, Y, Z, R, G, B, ERROR, TRACK[] as (IMAGE_ID, POINT2D_IDX)
# Number of points: 497, mean track length: 4.72183
7566 2.02544 -0.599349 10.0511 159 150 133 0.317491 3 8064 2 7861 1 9010
50 -1.22156 -0.546408 11.1636 152 155 159 0.381922 4 629 7 3669 6 3242 5 3516 9 3847 8 637 2 701 10 3847
7567 0.546318 -0.568447 11.0835 56 77 110 0.478337 3 5523 2 7865 1 8992
51 -2.33474 -0.519132 10.5464 153 143 118 0.581421 4 636 7 612 5 749 9 770 2 677 10 3962 1 916
7568 -5.65183 -0.180763 8.86834 152 152 141 0.582794 3 7039 2 7918 1 7776
52 -2.87911 -0.507893 10.4756 148 147 129 0.527108 4 643 7 640 6 637 5 803 9 3946 8 3328 3 655 2 3528 10 4001 1 4165 11 1303
7569 0.600046 -0.318099 10.3509 137 134 129 0.818194 3 6999 2 7920 1 9058
53 -0.114322 -0.517856 11.3334 133 148 146 0.466994 4 644 7 3663 6 3243 5 3493 9 5839 8 3319 3 670 2 3569 10 5963
7570 -3.26196 -0.192048 10.4279 167 158 143 0.351497 3 8169 2 7925 1 9032
54 1.76243 -0.473265 10.0841 114 95 81 0.593083 4 668 7 508 5 3411 8 654
7571 0.579419 -0.141405 10.6624 106 95 93 0.482887 3 7055 2 7961 1 9906
55 0.269288 -0.46365 11.3664 13 42 58 0.29955 4 688 7 3678 6 3255 5 5299 8 3332 3 714
7572 -3.26337 0.268271 10.3253 156 155 150 0.297482 3 8284 2 8058 1 9945
56 1.98747 -0.451791 10.1088 127 120 99 0.83253 4 691 7 3641 6 3235 5 5245 9 6990 8 662
7573 -4.75394 0.369311 10.4034 145 143 130 0.37651 3 8310 2 8081 1 9950
57 0.940124 -0.422665 9.94047 82 72 63 0.705389 4 705 7 3675 6 3256 5 3467 9 5804 8 694 3 735 2 842 10 5904 1 1196
7574 -5.85942 0.380298 8.69107 150 124 89 0.772456 6 6585 2 8108 10 7673
58 -4.53817 -0.409412 10.5947 139 131 116 0.389559 4 710 7 736 6 724 5 1032 8 750 3 3622 2 751 1 4152
7575 0.578301 0.448196 10.5417 76 63 67 1.53638 3 7257 2 8115 1 10007
59 -4.53824 -0.409847 10.5941 139 131 116 0.388937 4 711 7 737 6 725 8 749 3 3623 2 750
7576 -2.22299 0.466257 10.4557 157 157 148 0.294495 3 8333 2 8117 1 9217
60 1.81952 -0.392402 10.0754 82 73 70 0.426579 4 726 7 3670 6 611 5 3445 9 5778 8 708 3 764 2 893
7577 -2.93494 0.524436 10.3329 156 157 152 0.028184 3 7285 2 8134 1 9228
61 1.97087 -0.386937 10.106 93 80 81 0.66752 4 730 7 3672 5 3436 9 5773 8 709 3 778
7578 -6.41731 0.496437 8.60685 64 62 79 0.380606 3 7314 2 8143 1 9980
62 -6.5427 -0.35606 8.76346 55 63 66 0.614534 4 746 7 807 6 771 5 1118 9 1298 8 794 3 3634 2 3539
7579 -3.88767 0.776264 10.4493 141 134 124 0.722966 3 8405 2 8190 1 10028
63 -0.824249 -0.352202 11.0947 146 138 115 0.18165 4 749 7 691 6 699 8 751 3 785 2 871 1 1166
7580 -4.76732 0.828683 10.3179 59 61 54 0.398757 3 8421 2 8201 1 10035
64 1.00331 -0.349845 9.92681 139 119 95 0.43026 4 753 7 625 6 661 9 3773 8 736 3 802
65 -0.755778 -0.347428 11.1058 144 133 113 0.282775 4 754 7 701 6 704 5 851 8 759 3 787 2 876 10 3935 1 1176
7582 -4.03887 0.90106 10.3906 137 137 128 0.3208 4 7738 2 8217 1 9305
66 -0.688378 -0.345861 11.1173 146 134 112 0.286072 4 755 7 692 6 705 5 844 9 780 8 760 2 883 10 3924
7583 0.690796 0.906416 9.76898 138 148 149 0.4846 4 7749 2 8237 1 9345
67 -0.848574 -0.317769 11.1286 133 111 90 0.428951 4 779 7 717 3 3661 2 914
7584 0.601987 1.00251 10.1618 130 129 128 0.516023 3 8457 2 8247 1 9355
68 -4.92375 -0.297638 10.5294 66 66 67 0.422683 4 788 7 802 6 772 5 1086 9 1229 8 801 3 3663 2 3604 10 1411 1 4194
7585 -3.61014 1.07326 10.452 137 127 121 0.367282 3 8476 2 8262 1 10079
69 -4.84595 -0.295348 10.5416 56 66 61 0.18331 4 794 7 803 5 1084 9 1225 8 802 3 819 2 837 1 967
7586 -2.17702 1.07203 10.3247 88 85 80 0.112467 3 7449 2 8266 1 10088
70 -2.69507 -0.296106 10.5418 139 139 130 0.554472 4 795 7 754 6 744 5 1034 3 826 2 3634 1 4267
7587 -4.59854 1.19157 11.2673 76 79 76 1.66413 9 7567 2 8271
71 -5.2809 -0.287933 10.4554 77 83 83 0.865893 4 797 7 824 6 786 3 831
7588 -2.29747 1.27171 10.3144 62 74 94 0.523737 3 8532 4 7836 2 8310 1 10157
72 -2.67526 -0.28028 10.5317 96 90 94 0.493877 4 806 7 768 6 751 8 796 3 3670 2 905 1 1119
7589 -6.74108 1.2525 8.39201 162 160 137 0.675219 8 6888 2 8387 1 10186 3 8609
73 -2.67702 -0.278558 10.5208 96 90 94 1.11083 4 807 7 767 6 750 5 1043 3 3671 2 906 1 1120
7590 -2.18102 1.56456 10.2168 87 87 89 0.999533 8 6914 2 8405 1 10218
74 -5.35852 -0.270528 10.4033 131 134 117 0.228748 4 814 7 834 8 824
7591 1.97545 1.64191 9.67613 80 68 59 0.943178 3 8633 2 8422 1 9519
75 -2.52942 -0.252491 10.7619 138 134 123 0.167593 4 824 7 776
7592 -5.78591 1.54233 8.49772 82 72 62 0.458517 5 7189 2 8482 1 9559
76 -6.71596 -0.245735 8.71081 87 87 82 0.352171 4 831 7 868 8 851
7593 1.26758 1.85806 9.49827 110 112 104 0.467786 3 8723 2 8488 1 9575
77 1.98231 -0.230578 10.0654 134 132 119 0.177014 4 834 7 3719
7594 -6.74259 1.68616 8.2395 180 159 128 1.35981 3 8753 4 7066 1 10289 2 8515
78 1.98231 -0.230578 10.0654 134 132 119 0.177014 4 835 7 3718
7595 -6.85508 1.71411 8.32355 168 144 114 0.434663 3 7754 4 7068 2 8519
79 -3.04234 -0.195598 10.4824 149 143 128 0.439071 4 851 7 830 6 807 8 844 3 880 2 968 1 1174 11 1633 9 4108
7596 -6.18928 -2.47717 10.0197 235 254 254 1.38644 3 8868 4 8119 2 8592
80 -1.0721 -0.186176 11.0989 81 76 77 0.245504 4 855 7 785 6 777 9 1021 8 837 3 884 2 980 10 4035
7597 -0.670238 -0.616499 11.3094 95 132 174 0.716575 3 8947 2 8703 1 8964
81 -0.997872 -0.183216 11.1119 83 79 76 0.332536 4 856 7 786 6 778 5 1037 9 4015 8 838 3 886 2 982 10 4032
7598 -4.23005 -0.497512 10.573 158 143 127 0.114091 3 8091 2 8705 1 9817
82 -2.10057 -0.194484 8.02596 148 142 126 1.80671 4 866 7 835
7599 -4.65137 -0.38954 10.5613 148 139 127 0.604966 3 8967 2 8712 1 10460
83 -1.18526 -0.151629 11.0334 146 141 122 0.508423 4 869 7 813 10 4051
7600 -2.76561 -0.41369 10.5274 165 150 122 0.280432 3 8107 2 8715 1 9837
84 -4.08324 -0.153645 10.6291 112 93 87 0.461612 4 872 7 858 6 824 9 1276 2 974 1 1146
7601 0.496373 -0.24822 11.1775 125 122 117 1.02087 3 8160 2 8753 1 10493
85 0.00641634 -0.134473 11.2319 95 91 82 0.378642 4 876 7 794 6 797 5 1026
86 0.853506 -0.11457 9.85564 147 147 137 0.514805 4 894 7 3797 5 3601 6 805 9 5902 8 864 10 6019
7603 -0.222284 0.265299 11.1704 109 86 72 0.0600343 3 9051 2 8826 1 9969
88 -1.93344 -0.0972862 10.6305 107 100 92 0.554771 4 899 7 3839 5 3669 8 3446 2 1014
7605 -3.16594 0.950752 10.2223 135 130 122 0.569911 8 7726 2 8918 1 10064
89 -1.09371 -0.0588515 11.0697 118 95 91 0.555077 4 911 7 856 9 1139 11 1362
7606 -1.33273 1.12719 10.7706 137 135 123 0.406527 3 9156 2 8937 1 10091
90 0.336021 -0.0483487 11.2825 97 97 95 0.580289 4 914 7 3824
7607 0.492374 1.15442 10.9157 120 123 129 0.231147 3 8483 2 8938 1 10596
91 0.36134 -0.0459592 11.284 53 52 52 0.325311 4 923 7 3825 6 816 8 3452 2 1057 3 946
7608 -2.41482 1.28653 10.3601 82 99 131 0.330631 3 9194 2 8977 1 10155
92 0.93313 -0.00334405 9.84989 131 128 106 0.267456 4 958 7 860 3 3789
7609 -2.24322 1.43677 10.2491 127 129 127 0.693551 3 9215 2 8995 1 10192
93 1.99794 0.00409192 10.0252 79 71 60 0.483981 4 959 7 847 6 837 5 3619 9 5901 8 908
7610 -2.24247 1.51681 10.2366 133 126 118 0.173273 3 9237 2 9009 1 10647
94 -0.212061 0.0467218 11.1772 131 127 111 0.333066 4 968 7 3874
7611 -6.74475 1.41211 8.33416 178 169 145 0.886156 3 8667 2 9034 1 10229
95 -1.98383 0.102087 10.5725 110 106 95 0.347552 4 998 7 945 6 897 5 1250 9 4202 8 958 10 4240 1 4472 11 1741
7612 0.729465 2.01836 9.68447 106 119 128 0.14347 4 8530 2 9078
96 1.79771 0.0951293 9.97476 151 140 128 0.532865 4 1003 7 899 6 877 5 3659 9 5955 8 947 2 1152 1 1556
7613 -4.55386 2.04674 10.1199 51 59 70 0.0415736 3 9299 2 9094
199 -6.24776 -2.67388 10.0442 91 65 193 0.291298 4 2869 7 16 6 15 9 125 5 53 8 9 3 3237 2 3151
200 -2.77211 -2.97643 12.4743 51 61 89 0.800619 4 2872 7 3337 6 2908 5 3092 9 5575 8 2935 2 3154 10 5621 1 3671
201 -6.16366 -2.24735 9.86022 106 124 159 0.421831 4 2878 7 112 6 2944 5 157 8 2950
202 -6.14711 -2.16422 9.80973 41 58 99 0.501511 4 2885 7 3404 6 2959 8 2959 2 3163
203 -6.12747 -2.12187 9.79272 45 63 99 0.536616 4 2888 7 143
204 -4.21519 -2.12563 12.0964 50 72 97 0.794494 4 2920 7 3427 5 3200 8 3004 3 3281 2 3196
205 -3.9411 -2.12424 12.142 101 122 151 0.983938 4 2923 7 3426 6 159 5 3189 9 3513 8 170 3 134 2 95 10 3587 1 300
206 1.25008 -1.93694 10.9218 31 48 87 0.702699 4 2931 7 3372 6 2945 8 2985
207 -1.53396 -2.03463 12.4871 86 108 131 0.956035 4 2943 7 3413 6 2984 5 5073 9 5634 8 3012 3 3295 10 3497
208 -1.43576 -2.037 12.5074 45 70 100 0.732535 4 2944 7 3414 6 2982 5 3166 8 3013
209 -3.37339 -1.88556 11.9016 55 62 80 0.274946 4 2950 7 3451 5 3218 8 3036 3 3303 2 3227 1 3776
210 -3.37339 -1.88556 11.9016 55 62 80 0.274946 4 2951 7 3452 5 3219 8 3035 3 3302 2 3226 1 3775
211 -0.732608 -1.87793 12.4836 53 72 102 0.883067 4 2955 7 3433 6 3009 8 223 3 213 1 467
212 -5.78734 -1.75185 11.4986 111 126 139 0.516398 4 2960 7 257 6 241 8 244
213 -3.37441 -1.77839 11.8773 55 55 69 0.314549 4 2961 7 3459 6 3024 5 3233 8 3052 3 3309 2 3238 1 3788
214 -3.37558 -1.77902 11.8817 55 55 69 0.259741 4 2962 7 3460 6 3025 5 3234 8 3053
215 -6.06634 -1.40163 9.05017 135 140 136 0.587447 4 2974 7 285 6 3051 5 348 9 446 8 3072 2 5174
217 0.399417 -1.63812 12.4303 137 143 159 0.50187 4 2985 7 3456 6 3028 5 3191 8 3066 3 3341
218 -5.96406 -1.28473 9.03222 94 88 90 0.876987 4 2990 7 3508 8 3084 6 300 3 3338 2 5202 1 6014
219 -4.88257 -1.34675 11.209 45 48 69 0.614226 4 3000 7 3512 6 3069 5 3332 9 3728 8 3099 3 5358 2 5226 10 5953 1 6060
220 1.349 -1.16585 10.1529 143 140 129 0.57715 4 3011 7 3472 6 3048 5 5097 9 5635 3 3372 2 369
221 -1.74671 -1.17102 11.6638 25 46 61 0.543202 4 3025 7 3522 6 3082 5 5158 8 3121 3 5380 2 3332
222 -5.8999 -0.985215 8.99854 134 145 142 0.337778 4 3032 7 409 3 3379
223 -1.1459 -1.14344 11.747 36 54 74 0.711629 4 3033 7 3518 6 3083 5 3290 9 3624 8 374 3 3386
224 -6.38185 -0.974773 8.93215 63 78 99 0.471432 4 3034 7 430 6 3142 5 609 9 741 8 3180 3 5381 2 5244
225 -2.61116 -1.06317 10.7249 130 119 101 0.468149 4 3039 7 3535 6 3103 5 5191 9 7000 8 4880 3 5392 2 5276 1 6138
226 1.30785 -1.03497 10.1277 96 82 74 0.677484 4 3040 7 3481 6 4860 5 5113 8 3118 3 373
228 -0.323674 -1.11817 11.867 41 57 72 0.329168 4 3048 7 3513 8 3136 3 3410
229 -0.323674 -1.11817 11.867 41 57 72 0.329168 4 3049 7 3514 8 3137 3 3409
230 -4.41162 -1.05094 10.7676 128 133 128 0.357362 4 3051 7 3563 6 3123 5 3409 8 3163 3 3394 2 3324 1 6111
231 -6.95231 -0.919232 8.7198 243 255 244 1.01653 4 3063 7 491 6 473 5 657 9 3949 8 449 3 3399 10 4033
232 -5.2863 -1.00575 10.618 75 72 59 0.261979 4 3067 7 3588 3 3411
233 -2.69907 -0.992556 10.7014 113 101 95 0.488415 4 3069 7 3553 6 3117 5 3387 9 3729 8 3169 3 3421 2 3362 10 3759 11 866
234 -0.622607 -1.01977 11.3122 130 126 104 0.596351 4 3073 7 3530 6 3102 9 5724 8 402 10 5847
235 -1.06322 -1.00022 11.6235 41 66 88 0.446511 4 3082 7 5481 8 3174
236 -2.53622 -0.939081 10.7935 127 149 165 0.574205 4 3088 7 3567 6 3131 5 3395 9 3743 8 3188 3 3438 2 3383 10 3772 1 3978
237 -2.53607 -0.939919 10.7931 127 149 165 0.484239 4 3089 7 3568 6 3132 5 3396 8 3189 3 3437 2 3384 1 3979
238 0.03059 -0.931171 11.436 102 88 85 0.697193 4 3104 7 5483 3 466
239 1.22678 -0.877274 10.0881 147 147 139 1.04492 4 3105 7 3526 6 370 5 5136 8 3179 3 475 2 522 10 7170
240 -2.56445 -0.877108 10.7783 73 96 131 0.272702 4 3113 7 410 3 463
241 1.06181 -0.828072 10.0968 37 45 68 0.653918 4 3126 7 5472 5 5149 3 3483
242 1.60305 -0.830953 10.1364 145 147 141 0.387558 4 3127 7 5470 6 3110 5 5141 9 6930 8 3195 3 488 2 536
243 -6.63458 -0.741975 8.82154 113 97 97 0.415174 4 3134 7 569 6 545 8 535 3 3478
244 1.60264 -0.744962 10.1096 122 131 138 1.02857 4 3147 7 5497 6 4937 3 531
245 -2.50684 -0.748967 10.7565 64 85 135 0.0435345 4 3149 7 3620
246 1.21008 -0.731174 10.0598 73 90 116 0.429551 4 3156 7 3557
247 -6.11691 -0.672285 8.8751 122 104 92 0.541502 4 3163 7 598 6 568
248 1.73019 -0.720717 10.1311 9 31 72 1.05168 4 3167 7 5503 6 4943 5 6389 9 6942 8 4964 3 554
249 -2.85942 -0.70615 10.6296 97 96 101 0.494177 4 3176 7 3635 5 3492 9 5864 8 3268 3 3521 2 5363
250 -0.680787 -0.70467 11.3465 110 127 156 1.16475 4 3181 7 5554 6 4986 3 3532 10 5941
251 -0.680787 -0.70467 11.3465 110 127 156 1.16475 4 3182 7 5555 6 4985 3 3533 10 5940
252 -6.50227 -0.633812 8.82817 70 74 86 0.156018 4 3185 7 643 3 3524 2 3414
253 -5.60763 -0.612005 8.96114 74 74 82 0.658608 4 3188 7 633 5 904 9 1032 8 613 3 3537 2 3437 1 3951
254 -5.95442 -0.580206 8.86695 147 143 133 0.676226 4 3205 7 666 6 645 5 940 9 1080 8 643 2 3443
255 -3.92317 -0.594221 10.7512 38 60 89 0.0724494 4 3225 7 611
256 -4.30679 -0.553741 10.5866 70 91 114 0.0802658 4 3240 7 3704
257 -4.30679 -0.553741 10.5866 70 91 114 0.0802658 4 3241 7 3703
258 -0.374192 -0.53952 11.3248 40 56 82 0.646634 4 3245 7 5597 5 5292 9 5842 8 3310 3 3589 2 3556 1 1030
259 -0.47911 -0.515139 11.2711 126 136 137 0.324342 4 3248 7 3673 8 3322 3 3597 2 3566 1 4239
260 -6.7001 -0.483072 8.75445 137 144 126 0.435728 4 3252 7 742 8 720 3 3585 2 3468
261 -6.42685 -0.4662 8.79767 144 146 145 0.29129 4 3259 7 744 3 3591
262 -6.42685 -0.4662 8.79767 144 146 145 0.29129 4 3260 7 745 3 3592
263 -2.06177 -0.488396 10.5942 144 138 115 0.330895 4 3261 7 3696 6 3273 5 5343 2 5431
264 -0.114876 -0.482478 11.3141 44 64 88 0.429573 4 3264 7 3677 6 3251 5 5305 9 5845 8 3326 3 3608 2 3580 10 5977 1 4272
265 -6.45289 -0.442959 8.78993 74 66 87 0.403886 4 3266 7 3761 6 3336 5 1060 8 748 3 3603 2 5385
266 -4.11892 -0.402178 10.6646 131 116 96 0.550972 4 3272 7 3744 6 3321 5 5407 9 6000 3 3625 2 5446 10 6160 11 5282
267 -5.25995 -0.394965 10.4478 123 118 101 1.00079 4 3277 7 3762 5 3641 8 3358
268 -2.89289 -0.375138 10.5347 100 90 81 0.129068 4 3279 7 3740
269 -2.89289 -0.375138 10.5347 100 90 81 0.129068 4 3280 7 3741
270 -3.07125 -0.367882 10.4938 134 127 109 0.48563 4 3282 7 3743 6 3325 5 3606 9 4031 8 3355 3 3635 2 3594 1 4220 11 1483
271 -6.60354 -0.354549 8.75367 78 81 94 0.271797 4 3283 7 817 6 775 5 1120 8 793 3 3633 2 3538
272 -2.04111 -0.358269 10.6597 141 144 116 0.484883 4 3284 7 3732 6 3318 5 5376 9 5947 8 5068 3 3638 2 3610 10 6097 1 4262 11 5051
273 -2.0413 -0.358591 10.6578 141 144 116 0.19801 4 3285 7 3733 6 3317
274 -1.89143 -0.354903 10.6837 148 146 130 0.45392 4 3286 7 3729 6 3315 5 3584 9 5937 8 3353 3 3640 2 3616 10 6091 1 4268 11 5028
275 -1.89144 -0.355182 10.683 148 146 130 0.390115 4 3287 7 3728 6 3314 5 3583 8 3354 3 3641 2 3617 1 4269
276 1.18168 -0.350733 9.95254 129 112 86 0.428966 4 3292 7 5617 6 5036 5 6497 8 5058
277 -5.71777 -0.332875 8.88651 76 71 82 0.470703 4 3297 7 804 6 3373 5 1099 9 1261 8 798 3 3644 2 3570 1 6225
278 2.02302 -0.321281 10.087 121 108 91 0.493157 4 3303 7 3691 6 3284
279 -0.713055 -0.304605 11.1444 131 116 93 1.10769 4 3306 7 3735 6 3323 5 3578 8 3369 3 3665 2 3654 1 6387
280 -5.22755 -0.287162 10.4532 85 89 90 1.03402 4 3311 7 826 6 788 9 1255 3 833 8 811 2 836
281 -4.17788 -0.279169 10.6387 66 67 69 0.22417 4 3313 7 3799 6 3372 9 4122 8 3392 3 3669 2 3625 10 4172
282 -1.90413 -0.245222 10.6439 90 86 83 0.411629 4 3321 7 3777 6 3360 5 5411 9 4036 8 3396 3 3683 2 3663 10 4049
283 -0.60288 -0.236817 11.1305 124 124 100 0.702618 4 3324 7 5677 9 5930
284 -6.4186 -0.233837 8.75126 83 71 91 0.201009 4 3333 7 870 3 3687 2 3613
285 -6.42111 -0.233478 8.75486 83 71 91 0.0767166 4 3334 7 869 5 1184
286 -5.87991 -0.23228 8.82582 122 114 104 0.172835 4 3335 7 861 6 819
287 -1.52139 -0.209248 11.0201 134 126 103 0.826742 4 3336 7 3788 6 3368 5 5414 8 5103 3 3694 2 3681
288 -0.924538 -0.202478 11.1097 124 128 113 0.417734 4 3340 7 3781 6 3364 5 3616 9 4005 8 3403 3 3695 2 3689 1 4361
289 -0.213058 -0.191839 11.2242 83 79 68 0.554676 4 3342 7 3770 5 5393
290 1.09125 -0.210877 9.92344 74 65 53 0.727148 4 3344 7 5658 6 3346 5 5351 9 7052 3 3703 1 4410
291 -1.27142 -0.195711 11.0561 144 137 121 0.649534 4 3346 7 3789 3 3699 2 3688 1 4357
292 -2.88976 -0.193625 10.4982 143 138 127 0.384429 4 3348 7 3811 6 3386 5 5446 9 6019 8 3418 3 3698 2 3675 1 6375 11 5260
293 -1.88973 -0.198821 9.78249 100 88 82 0.861012 4 3350 7 3803
294 1.26865 -0.191116 9.94091 91 84 73 1.35035 4 3352 7 3746 5 5354 9 8051 2 996 10 9095
295 1.26623 -0.193576 9.92216 91 84 73 0.292053 4 3353 7 3745 5 5353
296 -3.79423 -0.176343 10.6657 133 126 114 0.643328 4 3354 7 3828 6 3402 5 3681 9 6057 8 853 3 885 2 3674 1 1147 11 5369
297 1.98497 -0.180632 10.0513 137 135 119 0.536506 4 3355 7 5659
298 -3.65091 -0.171002 10.6883 123 118 111 0.463155 4 3358 7 848 6 3403 5 3676 9 4143 8 3425 3 3705 2 3678 1 6363
299 -4.44183 -0.162456 10.5419 99 95 90 0.522632 4 3363 7 3850 8 863 3 3709 1 4288
301 -2.72865 -0.117487 10.5111 103 98 90 0.417962 4 3386 7 3843 6 3413 5 3683 9 4133 3 918 2 3710 10 4170 1 4356 11 1658
302 -4.48223 -0.115545 10.5429 87 87 77 0.4317 4 3387 7 3864 3 5641 2 5535
303 -0.955285 -0.0982649 11.098 99 82 75 0.555702 4 3389 7 3820 5 3656 9 5997 3 5649 2 3724 10 6140 1 1349 11 5064
304 -6.45263 -0.134655 8.72709 71 77 91 0.404135 4 3391 7 918 6 3465 5 1243 9 1499 3 5644 2 5509
305 -2.31479 -0.102986 10.5709 105 103 100 0.239162 4 3392 7 3845 6 3418 5 3672 9 4123 8 880 2 3721 10 4156 11 5251
306 0.333587 -0.0279283 11.2837 97 97 98 0.704576 4 3406 7 5724 6 3416 8 3457 3 5674 1 4464
307 -0.2454 0.0211084 11.1839 94 85 74 0.521965 4 3421 7 5741 6 3445 5 5471 9 7171 8 3477 3 3785 2 5601 10 7445
308 -6.41902 -0.0133495 8.71143 76 72 89 0.40738 4 3426 7 972 6 910 5 1314 8 955 3 3790 2 3733 1 6345
309 1.7 0.0577541 9.96468 75 64 70 0.443926 4 3442 7 5742 6 3454 5 5434 9 7096 8 3499 3 994 2 1134 1 1527
310 -5.80319 0.0372123 8.79894 69 68 63 0.566434 4 3447 7 985 6 926 8 977 3 3816 2 5589 1 6389
311 -2.03284 0.0927588 10.5705 148 143 128 0.462897 4 3451 7 941 6 893 5 3733 2 1109 1 1431 11 5328
312 -0.212273 0.12843 11.165 86 77 69 0.349751 4 3455 7 3896 5 5490 9 6046 8 3515 3 3826 6 3499 10 7468
313 -0.212291 0.128655 11.1663 86 77 69 0.347348 4 3456 7 3897 6 3498 5 5491 9 6047 8 3516 3 3827
314 -3.14581 0.0997826 10.4061 144 143 132 0.67015 4 3457 7 3934 5 1270 2 3793 11 1959
315 -0.378355 0.126295 11.1373 91 74 80 0.44192 4 3458 7 5771 6 3496 5 5492 8 3513 3 3825 10 7473
316 -5.46968 0.129525 10.3419 112 103 86 0.545704 4 3468 7 3973 6 3556 8 3541 3 3846
317 -0.953083 0.269533 11.0229 90 81 76 0.312883 4 3497 7 3976 6 3568 5 5539 9 6110 3 3882 2 3866 10 6238 1 4569 11 7677
318 -5.80317 0.202507 8.76573 71 76 64 0.296892 4 3509 7 4024 6 3608 5 1453 9 1675 8 3590 3 3899 2 5663 10 1743
319 -1.89872 0.294398 10.5537 145 146 134 1.05774 4 3512 7 1021 6 3588 8 5248 3 1060 2 3885 1 4564
320 -5.71623 0.240486 8.77092 74 74 76 0.369883 4 3523 7 4050 6 3631 5 3880 9 4375 8 3612 2 5682
321 -5.64275 0.241555 8.78386 76 71 74 0.37853 4 3524 7 4051 6 3632 8 5263 3 3914 2 5684 1 6485
322 -4.17823 0.336768 10.5145 81 76 74 0.287272 4 3529 7 4041 6 3618 5 3861 8 3606 3 3916 2 5702 1 6542
323 -4.76582 0.351189 10.4199 133 128 125 0.284532 4 3534 7 4054 8 3617 10 4419
324 -4.01921 0.415739 10.5215 131 131 123 0.357442 4 3566 7 4068 6 3652 5 3913 9 4367 8 1121 3 3938 10 4420
325 -4.01917 0.416159 10.5211 131 131 123 0.390331 4 3567 7 4069 6 3653 5 3914 3 3939 8 1120
326 -5.72942 0.325088 8.70174 98 98 104 0.292059 4 3570 7 4101 5 3928 2 5725
327 -5.72942 0.325088 8.70174 98 98 104 0.292059 4 3571 7 4102 5 3929 2 5726
328 -6.60986 0.329858 8.59305 128 132 133 1.23754 4 3576 7 1146 5 1565
329 -4.72749 0.436297 10.3981 125 122 112 0.0584788 4 3580 7 4093
330 -3.67213 0.4631 10.6595 97 112 138 0.289025 4 3593 7 4094
331 -5.48592 0.35447 8.73905 130 128 119 0.500717 4 3598 7 1155 6 3694 5 3945 9 4430 8 3671 3 3972 2 5747 1 8022
332 -1.08301 0.491453 10.9637 87 76 73 0.301169 4 3599 7 5888 6 5306 5 5603 9 7350 3 3969
333 -0.954323 0.501027 10.9739 134 133 115 0.337613 4 3603 7 4073 6 3659 9 6176 2 3970 10 6316
334 -2.0052 0.496402 10.4805 113 110 105 1.02827 4 3617 7 1144 8 1153 2 1366 1 1677
335 -0.948919 0.532184 10.9663 103 83 77 0.271316 4 3620 7 4096 6 3686 8 3680 3 3994
336 -0.214691 0.554277 11.0808 76 67 58 0.428871 4 3627 7 4105 5 5615 9 6175 8 3684 3 4002 2 3997 10 7580
337 1.61133 0.492397 9.85123 136 129 101 0.266467 4 3635 7 5895 6 5321 5 6784 9 7295 8 3685 3 4008 2 4008 10 8472 1 1804
338 -2.0304 0.529179 10.4847 137 142 136 0.60737 4 3636 7 5927 6 5346 5 5639 9 6230 8 5329 3 5875 2 3996 10 6377 1 6640 11 7843
339 0.90445 0.512052 9.6919 67 77 79 0.762987 4 3646 7 5915 5 5607 8 3704 2 4032
340 -4.01741 0.568124 10.4871 124 129 125 0.730214 4 3647 7 1212 9 1779 8 1200 3 4027 2 4012 10 1843 1 4667
341 -1.03786 0.599787 10.9453 79 66 64 0.307375 4 3649 7 4148 5 3947 9 6223 2 4030 1 4734 11 5517
342 -1.03778 0.599834 10.9457 79 66 64 0.26395 4 3650 7 4149 5 3948 1 4735
343 0.969429 0.5184 9.77854 73 76 85 1.06064 4 3651 7 4120 5 5604
344 1.02691 0.516275 9.71846 72 76 81 7.4448e-05 4 3652 7 4121
345 -2.89143 0.557815 10.3373 106 105 105 0.762915 4 3654 7 4168 6 3728 5 3977 9 4422 8 3714 3 4028 2 4018 10 1783 1 4687 11 2271
346 2.00348 0.548555 9.88264 72 78 87 0.578009 4 3660 7 5918 5 5597 2 4043
347 -0.340857 0.683979 11.0337 76 67 71 0.205366 4 3676 7 5955 6 5370 9 7397 8 5364 3 4060 2 4070 10 8575 1 4794
348 -0.465369 0.722697 10.996 116 114 98 0.562262 4 3690 7 5981 6 3761 5 6870 7 7323 9 6254 8 5386 3 4080 2 4085 10 7644 1 4810 11 9277
349 -6.34376 0.550278 8.56997 142 144 123 0.711038 4 3691 7 4219 5 1761 8 3759 3 5948 2 5840 10 1971 1 8101
350 -1.14846 0.72809 10.8997 131 132 129 0.842696 4 3693 7 4206 6 3767 5 5697 9 6266 8 3750 3 4085 10 7662 1 6725
351 -6.07248 0.554586 8.60462 138 132 119 0.870502 4 3694 7 4221 5 4063 9 4559 8 3760 3 5953 1 6618
353 1.78707 0.736687 9.84636 70 69 67 0.467117 4 3716 7 6010 6 5428 5 6877 9 7390 10 8554
354 0.73344 0.765907 9.65835 119 106 86 1.08031 4 3728 7 6025 5 5732 9 7434 8 5438 10 8599 1 4897
355 1.33136 0.789422 9.75719 121 101 75 0.802089 4 3731 7 6028 5 6905
356 -5.34248 0.840797 10.1967 80 82 77 1.28648 4 3735 7 1401 6 5462 8 3805 3 1413 2 4148
357 -5.34501 0.840437 10.1887 80 82 77 0.505465 4 3736 7 1402 3 1414
358 0.0844618 0.928398 11.0072 70 71 55 0.647054 4 3741 7 6049 6 3830 5 5772 8 5451 3 4144 2 4175 1 4917
359 1.67192 0.829268 9.80285 126 115 93 0.980922 4 3742 7 7382 6 5459 5 5745 8 5453 3 1408 2 1637 10 8590
360 -3.68128 0.90145 10.4864 90 89 94 0.878701 4 3766 7 1423 9 2047 3 1429
361 -5.45262 0.895475 10.2094 67 65 53 0.881967 4 3774 7 4296 6 3860 5 4172 9 6377 3 4171 10 6527
362 -4.97549 0.905763 10.278 95 87 76 1.04137 4 3779 7 4303 6 1337 5 4180 9 4662 8 3828 10 4675
363 -5.24856 0.900584 10.1991 62 59 52 0.533304 4 3781 7 4300 6 3864 5 4174 8 3827 3 4176 2 5942
364 -2.63462 0.907833 10.3223 76 66 57 0.504277 4 3787 7 4297 5 4162 8 3832 2 4206 1 4891
365 -2.20135 0.908159 10.283 66 65 59 1.04627 4 3790 7 1439 5 1902 9 4605 8 3835 3 4173 10 6492
366 -3.90717 0.936947 10.4223 100 93 85 0.801044 4 3794 7 4307 8 3840
367 0.0833696 1.01798 10.9841 100 98 95 0.599632 4 3799 7 4316 5 4160 8 3850
368 -0.162791 1.03517 10.9574 70 65 59 0.674825 4 3808 7 6085 6 3886 5 4183 8 5482 3 4202
369 -4.7561 0.97973 10.2909 63 61 62 0.413418 4 3815 7 1490 5 1987 9 4688 3 4212 1 4907
370 -5.83103 0.818012 8.64018 42 53 36 0.320934 4 3821 7 1488 6 1389 5 1970 3 4218 2 4239 1 4869
371 -0.886563 1.05999 10.8391 136 136 138 0.514726 4 3833 7 1503 6 3904 5 1972 8 1434
372 0.339658 1.08976 11.0546 112 102 110 0.49675 4 3834 7 6105 6 3901 8 3875 3 4213 2 4257 1 2136
373 -4.16496 1.02075 10.3705 111 115 110 0.416841 4 3839 7 1512 5 4236 9 6389 8 3880 3 1535
374 -4.16523 1.02057 10.3719 111 115 110 0.419309 4 3840 7 1513 5 4237 8 3881 3 1534
375 -4.01281 1.10447 10.3827 64 58 62 0.268705 4 3864 7 4369 6 3935 5 4261 9 4709 8 3902 2 4291
376 1.09022 1.07115 9.66777 72 63 46 0.812787 4 3881 7 6135 5 7011 10 7742 9 6378
377 0.847704 1.07901 9.6159 131 131 121 0.354409 4 3886 7 6141 6 5556 5 5877 9 7542
378 -6.41334 0.966747 8.50849 75 65 67 0.290879 4 3891 7 1572 6 1470 5 2076 2 6046 8 3927 1 6839
379 -5.82793 0.980824 8.60236 63 65 58 0.334523 4 3899 7 1576 6 1472 8 1511 3 4285 2 4324
380 1.67029 1.14515 9.73505 121 113 105 0.556996 4 3905 7 6153 6 5570 8 5557 9 8518 3 4268 2 4323 11 10215
381 1.05188 1.14851 9.64158 75 59 63 0.612442 4 3917 7 6161 6 5574 5 7039 9 8534 8 3957 3 4283 10 8694 11 10237
382 -1.08284 1.28044 10.7983 79 72 77 0.44633 4 3921 7 6159 5 5898 9 7588 8 3952 3 4292 11 8049
383 -0.252404 1.30349 10.9237 54 56 43 0.454386 4 3923 7 4423 6 5576 5 5900 8 3956 3 4293 10 7793 1 2247
384 -2.54915 1.22937 10.3428 57 74 100 0.768169 4 3929 7 4418 9 6419 3 4298
385 -0.338657 1.31592 10.9042 67 61 61 0.344632 4 3934 7 6164 6 5584 5 5906 9 7590 8 5569 3 4297 2 4346 10 8722
386 -5.87661 1.04952 8.57973 146 136 124 0.946963 4 3949 7 4415 6 1499 5 2140 9 2284 8 3967 3 6145 2 6074 1 6885
387 -1.07902 1.32572 10.7927 78 69 70 0.409512 4 3950 7 4432 9 7600 8 5581 3 6134 2 6073 11 9460
388 -6.41375 1.06796 8.48831 101 76 86 0.320226 4 3959 7 1615 6 1515 3 4338 2 6082
389 -6.41373 1.06832 8.48837 101 76 86 0.372385 4 3960 7 1616 6 1514 8 3976 3 4339 2 6081
390 -0.371189 1.37829 10.8891 62 56 56 0.703107 4 3962 7 6187 6 5604 9 7608 8 5595 3 4324 10 8728
391 -5.53428 1.14899 8.60151 78 68 76 0.054942 4 3993 7 1664
392 -5.53428 1.14899 8.60151 78 68 76 0.054942 4 3994 7 1665
393 -4.01608 1.42917 10.3167 59 56 58 0.342659 4 4015 7 4474 8 4052 2 4439
394 1.99238 1.38762 9.74677 110 113 100 0.784093 4 4017 7 6241 6 5658 9 8591 8 5656 3 4381 2 4419 10 8750
395 -6.70062 1.20486 8.41584 145 135 108 0.699655 4 4027 7 1695 6 4074 8 4057 3 6227 2 6145
396 -0.957041 1.51659 10.7678 62 61 57 0.349512 4 4029 7 6235 6 4090 5 5973 9 6475 8 4075 2 4440
397 -0.373053 1.53422 10.8516 52 50 51 0.32349 4 4030 7 4490 6 4092 9 6474 10 6635
398 1.86854 1.45734 9.71759 106 100 88 0.614324 4 4062 7 6257 9 8614 8 5680
399 -4.78705 1.51046 10.1809 62 56 58 0.501878 4 4066 7 4504 5 4409 9 4858 8 4102 2 6170 3 6245 10 4904 1 7005
400 -5.6747 1.27896 8.56712 84 66 68 0.337908 4 4067 7 1734 6 1611 8 1728 3 4460 2 4470 1 5155
401 -5.8292 1.30488 8.53657 60 64 53 0.381319 4 4084 7 1744 8 4107 6 4117 3 4485 2 6183 1 7008
402 -5.82948 1.30488 8.5366 60 64 53 0.356361 4 4085 7 1745 6 4118 8 4108 2 6184 1 7009
403 -0.990209 1.62935 10.7419 72 61 65 0.86748 4 4086 7 6260 6 5689 5 6008 9 6511 3 6247 5 7156 2 4473 11 8179
405 1.12496 1.49154 9.58468 64 66 55 0.534438 4 4093 7 6276 6 4159 5 6015 8 4145 10 7886 1 2506 11 9504
406 -4.17 1.58532 10.2649 70 61 64 0.562206 4 4095 7 4529 6 4136 5 4436 9 4881 8 4130 3 4489 2 4494 1 7039
407 -0.372755 1.69159 10.8237 59 58 61 0.285257 4 4100 7 4557 6 4167 8 4146 3 4478 2 4487
408 -0.373251 1.68908 10.8171 59 58 61 0.551189 4 4101 7 4556 6 4168 5 6019 8 4147
823 1.74641 1.74652 9.62355 62 50 52 0.892419 4 7029 7 8673 6 7902 9 9792 8 6986 3 7689 10 10048 11 11405
824 -6.44916 1.52471 8.37956 100 81 79 0.770078 4 7032 7 7632 5 6028 8 6965 3 7721 2 8481 1 9547
825 -5.49317 1.81301 10.0135 89 98 100 0.484297 4 7035 7 7656 6 6948 5 7205 9 7749 8 6971 3 7722 10 7935 11 8317
826 -1.36937 0.682296 3.89975 7 12 21 1.83488 4 7037 7 7657
827 -1.36937 0.682296 3.89975 7 12 21 1.83488 4 7038 7 7658
828 0.361183 1.96969 10.8739 82 94 105 0.312291 4 7039 7 7691 6 6978 8 6985 2 6274
829 1.26404 1.80524 9.506 78 65 57 0.634563 4 7049 7 8692 6 7917 5 8182 8 7982 3 7723 2 8479 10 9559 10 10065 1 9572
830 -6.35665 1.60052 8.37245 110 93 65 0.503194 4 7050 7 6319 6 6965 5 6048 8 6981 3 8727 2 8494 1 10270
831 0.220967 2.06314 10.8171 55 55 53 0.521527 4 7053 7 8691 6 7919 5 8180 8 6998 3 8718 2 7532 1 8569
832 -0.946454 2.18943 10.1558 43 61 75 0.55262 4 7087 7 7737 6 7020 5 7283 9 8752 8 7038 3 7767 2 7572 10 8906 1 7266 11 10448
833 -6.15568 1.98708 8.39232 29 33 44 0.860535 4 7108 7 6427 6 5850 5 6154 8 5881 3 7798 2 8547
834 -4.70397 -2.23384 12.0902 72 82 106 0.463796 4 7209 7 7913 6 7183 5 7373 9 7945 8 7200 3 7927 2 7677 10 8218 1 8783
835 -4.91739 -2.12519 11.9947 50 72 96 0.696892 4 7224 7 7919 6 6082 5 7388 8 7221 3 7939
836 -4.38991 -2.03165 11.991 39 57 92 1.11093 4 7234 7 7924 6 7197 5 7393 9 7959 3 8887 2 7693 1 8795
837 -2.03418 -2.02171 12.1472 126 134 133 0.245151 4 7237 7 6779 6 6074 5 7358 8 7223 3 7952
838 -1.03614 -1.99219 12.5368 44 58 84 1.6543 4 7242 7 8853 6 7188 5 8258 9 8805 8 8151 3 7960 2 7713 1 8834
839 -3.4121 -1.8349 11.8985 131 135 147 0.286741 4 7247 7 7926 6 7202 5 7400 8 6134
840 -5.99448 -0.84552 8.8496 133 126 110 0.793812 4 7296 7 7978 6 7266 8 7288 3 8921 2 8650
841 -5.79752 -0.720593 8.95621 66 62 58 0.80022 4 7314 7 6942 5 6518 9 8125 8 6254 3 6883 2 7788 1 8857
842 -5.83777 -0.698866 8.92411 135 136 128 0.346916 4 7318 7 8011 6 7291 5 7544 9 8126 8 7314 3 8033 2 8671 10 8384
843 -5.53917 -0.694469 8.97868 150 145 139 0.718139 4 7319 7 8009 6 7288 5 7534 8 7315 3 8933 2 8675 1 9763
844 -2.85509 -0.677394 10.6163 159 163 162 0.67826 4 7321 7 8000 6 7279 5 8331 9 8891 8 7317 3 8036 2 8692 1 9804
845 -5.55225 -0.621578 8.95205 98 88 87 0.804827 4 7323 7 8016 6 6254 5 6547 9 8135 8 7328 2 7805 10 8394 1 9772
846 -0.402819 -0.625775 11.3301 42 51 76 1.00445 4 7338 7 8908 6 8103 5 8832 9 9878 8 8207 3 8056 10 10467
847 -5.43433 -0.521381 10.409 126 122 106 0.604712 4 7351 7 7004 6 7339 5 8369 9 8959 8 7356 3 8073 10 9212 11 10735
848 -3.06465 -0.518933 10.4535 148 149 131 0.586545 4 7356 7 8036 6 7310 5 7555 9 8926 8 7342 3 8078 2 7841 10 9173 1 9825 11 10005
849 -3.06584 -0.518833 10.4526 148 149 131 0.256079 4 7357 7 8037 6 7311 5 7556 8 7343 3 8079 2 7842
850 -4.83798 -0.51321 10.4931 128 122 115 0.297012 4 7360 7 8069 6 7320 5 7581 8 7359 3 8080 2 7827 1 9805
851 -4.6295 -0.507675 10.5223 126 126 116 0.343061 4 7361 7 8062 6 7321 5 7582 9 8150 8 7360 3 8082 2 7830 10 8397 1 9807
852 -2.70534 -0.513449 10.5007 146 138 119 0.587031 4 7364 7 8026 6 7306 5 7545 9 8918 8 7344 3 8083 2 7845 10 9168 1 8947 11 9994
853 -4.42508 -0.503999 10.5523 130 126 116 0.482709 4 7370 7 8064 6 7323 8 7362 3 8086
854 -4.35331 -0.499964 10.5656 139 131 118 0.373672 4 7371 7 8065 6 7324 5 7576 9 8145 8 7364 3 8087 2 8702 1 9813
855 -2.24863 -0.49984 10.5689 146 145 127 0.617859 4 7372 7 8020 6 6259 5 7530 9 8091 8 7348 3 8094 2 7860 10 9155 1 8956 11 9974
856 -2.24887 -0.500619 10.567 146 145 127 0.381603 4 7373 7 8021 6 6260 8 7347
857 1.14398 -0.497279 9.97983 151 142 117 0.569375 4 7374 7 8911 6 7289 5 8318 9 9465 8 7335 3 8101 2 7877 10 10135 1 7832
858 -4.22929 -0.497787 10.5826 127 129 106 0.519191 4 7375 7 8066 6 7325 5 7577 9 8139 8 7365 3 8090 2 8704 1 9816
859 -2.17954 -0.495458 10.5886 147 141 116 0.484498 4 7377 7 6970 6 7307 5 7537 9 8092 8 7349 3 8095 2 7864 10 8334
860 -2.17816 -0.494533 10.5844 147 141 116 0.646266 4 7378 7 6971 5 7538 9 8093 3 8096 2 7863 10 8335 1 8963 11 9972
861 -1.88037 -0.490112 10.6302 142 132 106 0.449248 4 7379 7 8023 6 7308 5 8345 9 8904 3 8099 2 7867
862 1.95178 -0.482145 10.1156 112 96 86 0.658995 4 7380 7 7989 6 7287 5 8311 9 8848 8 6282 3 6947
863 -6.41634 -0.441819 8.79753 146 148 145 0.452024 4 7381 7 8099 6 7360 8 7393 2 8696
864 -1.35171 -0.408864 11.0102 128 125 106 0.379182 4 7391 7 8056 6 7333 5 8352 9 8912 8 7375 3 8112 2 7886 10 9152 1 9000
865 -1.16374 -0.40329 11.036 142 128 108 0.649701 4 7392 7 8045 5 7551 9 8908 8 7378 3 8113 2 7887 10 9144 1 9004
866 -1.08808 -0.395568 11.0518 140 134 110 0.32733 4 7394 7 8057 5 8353 9 8909 8 7383 3 8119 2 7889 10 9145
867 -0.887395 -0.396187 11.077 130 122 102 0.456767 4 7397 7 8048 6 7336 5 8348 9 8901 8 7381 3 8121 2 7892 10 9134
868 -2.82104 -0.38758 10.5659 143 135 115 0.647892 4 7398 7 8082 6 7347 8 7395 3 8116 2 8721
869 -1.91281 -0.378261 10.2436 139 131 112 1.44641 4 7399 7 8073
870 -1.91281 -0.378261 10.2436 139 131 112 1.44641 4 7400 7 8074
871 -0.825726 -0.389193 11.0903 126 119 100 0.527986 4 7401 7 8058 6 7337 5 8349 9 8902 8 7384 3 8126 2 7897 10 9135
872 0.873261 -0.390044 9.90441 146 142 120 0.878103 4 7403 7 8013 6 7312 8 6317 3 6978 2 6786 10 9082
873 -4.74831 -0.37535 10.5625 133 133 125 0.277351 4 7404 7 8100 6 7363 5 7616 9 7186 8 7403 3 8124 2 8714 10 8433 1 9831
874 -3.10823 -0.368243 10.4892 99 91 80 1.3089 4 7405 7 7010 6 6318 5 6583 9 7134 8 6348 3 8125 10 7431 11 7605 10 6134
875 0.279119 -0.357963 11.2534 114 113 108 0.401395 4 7408 7 8043 6 7338 8 7391 3 8138 2 7906 1 9047
876 -0.139567 -0.312665 11.3629 82 77 58 0.399671 4 7412 7 8072
877 -2.88896 -0.309713 10.517 147 149 143 0.453202 4 7413 7 7023 6 6332 5 7596 9 8161 8 7412 3 8139 2 7901 1 8996
878 -2.88845 -0.310172 10.5142 147 149 143 0.38816 4 7414 7 7022 6 6333 5 7595 9 8162 8 7413 3 8140 10 8390 11 10036
879 -2.13469 -0.290289 10.6338 144 144 131 0.716723 4 7418 7 8095 6 7368 5 7593 9 8138 8 7418 3 8146 2 7913 1 9026
880 -2.13469 -0.290289 10.6338 144 144 131 0.716723 4 7419 7 8094 6 7369 5 7592 9 8137 8 7417 3 8145 2 7912 1 9025
881 -1.06903 -0.273763 11.1174 94 78 73 0.689422 4 7426 7 8085 6 7365 9 8934 8 7421 3 7009 1 7875
882 -0.933644 -0.263718 11.1301 140 131 107 0.416991 4 7427 7 8940 6 7366 5 8362 9 8935 8 7428 3 8158 2 7923 10 9749 1 9053
883 -0.189905 -0.241498 11.2447 129 125 116 0.766011 4 7429 7 8941 6 7367 9 9504 8 7429 3 8162 2 7929 1 9065
884 0.839166 -0.241313 9.8904 148 145 130 0.402748 4 7434 7 8935 6 8131 8 8240 3 8165 2 7930 1 9075
885 1.13599 -0.232342 9.92631 151 145 129 0.604713 4 7436 7 8936 6 8132 5 8346 9 9491 8 8243 3 8166 2 7936 10 9713 1 9085
886 1.69372 -0.213906 10.0178 143 143 124 0.362675 4 7440 7 8937 6 7361 5 8344 9 9489 8 7432 3 8172 2 6840
887 1.99707 -0.203642 10.0517 141 139 127 0.314911 4 7442 7 8934 6 8133 8 7433 3 8177 2 7950 1 9104
888 -2.43966 -0.192378 10.5632 146 143 130 0.69442 4 7444 7 7062 6 7384 5 7626 9 8174 8 6401 3 7027 2 7928
889 -0.226008 -0.177702 11.2285 81 76 71 0.568847 4 7446 7 8110 6 7376 5 7590 9 8936 8 6395 3 8176 2 7942 10 9170 1 9074
890 0.861729 -0.156227 9.86326 99 77 80 0.309743 4 7451 7 8946
891 -2.83415 -0.122506 10.4983 145 147 136 0.737731 4 7457 7 8135 6 7396 5 7644 9 8210 8 7452 3 8185 2 8759 10 8441 1 9879 11 9166
892 -4.9361 -0.11181 10.4868 129 127 111 0.381607 4 7458 7 8168 6 7411 8 7462 3 8183 2 7932 1 9858
893 -4.35273 -0.109785 10.5823 138 135 123 0.567315 4 7461 7 7105 3 8188
894 -2.21671 -0.0947378 10.5832 148 145 130 0.468552 4 7464 7 8136 6 6404 5 7639 9 8202 8 7460 3 8196 2 7955 1 7907 11 10053
895 -4.18728 -0.0906383 10.592 137 132 125 0.260713 4 7465 7 8166 6 7413 5 7674 9 8253 8 7472 3 8192 2 7945 10 8475 1 9041
896 -4.0047 -0.0886086 10.6222 130 135 128 0.395496 4 7466 7 8167 6 7414 5 7671 9 8245 8 7473 3 8193 2 7946 10 8469 1 9873
897 -3.79078 -0.0933666 10.6419 134 133 122 0.563993 4 7467 7 8160 6 7407 5 8420 9 9001 8 7468 3 9009 8 8269 2 7949 2 8761 10 9244
898 1.7531 -0.0533989 9.99816 89 70 66 0.284362 4 7480 7 8962 6 8159 5 8852 9 9897 8 8273 3 8213 2 6907 1 6511
899 -1.35323 -0.0247717 11.01 138 135 120 0.567352 4 7483 7 8144 6 7408 5 7645 9 8198 8 7477 3 7088 2 7972 10 9217 1 9100
900 -1.28212 -0.0276921 11.0286 134 131 112 0.704816 4 7484 7 8145 6 7409 9 8979 8 7478 2 7973 3 9020
901 1.93605 -0.0403094 10.0227 91 80 78 0.569643 4 7486 7 8964 6 8162 5 8856 9 9898 8 7469 3 8219 2 7988 1 7994
902 1.99896 -0.0438133 10.023 139 145 137 0.520135 4 7487 7 8963 6 8160 5 8853 8 7470 3 8220 2 7989 1 9144
903 -2.83222 -0.0349577 10.4817 148 144 129 0.687997 4 7489 7 8170 6 7428 5 7669 9 8233 8 7489 3 8210 2 8772 1 9072
904 -1.12649 -0.00511979 11.0459 135 130 125 0.461266 4 7491 7 8152 6 7421 5 7649 9 8982 8 7485 3 8215 2 6899 10 9213 1 9106 11 10696
905 -0.729967 -0.00629122 11.107 140 136 123 0.534452 4 7492 7 8148 6 7415 5 8412 9 8972 8 7486 3 8217 2 7982 1 9110
906 -0.55702 -0.00173065 11.1311 142 140 127 0.643207 4 7493 7 8143 6 7416 5 8410 9 8969 8 7487 3 8218 2 7984 1 9919
907 -0.941624 0.000978272 11.0755 136 130 124 0.329843 4 7494 7 8153 6 7422 5 7646 9 8980 8 7490 3 8216 2 7983 10 9210 1 9109
908 -0.199093 0.0226786 11.1866 135 132 125 0.354206 4 7498 7 8155 6 7423 5 8411 9 8963 8 7494 3 8224 2 7991 10 9198 1 9122
909 -2.26677 0.0142217 10.5513 119 115 103 1.09721 4 7505 7 8182 6 7443 5 7675 9 8234 8 7497 3 7096 10 8457 1 7928 11 9171
910 -0.801378 0.0443055 11.0784 84 84 83 0.568288 4 7506 7 8172 6 7433 5 7659 8 6474 3 7105 2 7997
911 -2.83101 0.0408677 10.4638 149 146 139 0.616605 4 7511 7 8186 6 7451 5 8434 9 9019 8 7502 3 9030 2 8783 1 9905
912 -2.2204 0.0557715 10.5501 144 145 140 0.927855 4 7515 7 8187 6 6465 5 7681 9 8249 8 7503 3 8240 2 7996 1 9108 11 9184
913 -4.18769 0.068956 10.5602 138 133 129 0.27316 4 7516 7 8212 6 7459 5 7712 9 8296 8 7513 3 8241 2 7990 1 9078
914 -2.77331 0.0684564 10.4633 117 110 103 0.825019 4 7518 7 8192 6 7453 5 7691 9 8268 8 7512 3 8243 2 8005 1 9105 11 9216
915 -2.458 0.0977607 10.5746 91 109 131 0.865797 4 7526 7 8194 6 7456 5 7693 9 8271 8 7522 3 8248 2 8012 1 9113
916 -2.46069 0.0978309 10.5869 91 109 131 0.373515 4 7527 7 8195 6 7457 5 7694 8 7523 3 8249 2 8013
917 0.837842 0.0729798 9.81938 149 150 134 0.651766 4 7530 7 8982 6 7444 5 8408 9 9525 8 7508 3 8252 2 8022 10 9759 1 9163
918 -2.82736 0.123229 10.4471 149 145 142 0.62156 4 7535 7 7173 6 6488 5 7714 9 8288 8 7530 3 8256 2 8018 1 9120 11 9235
919 -2.21876 0.140862 10.5314 145 143 137 0.469146 4 7539 7 7174 6 7479 3 8259 2 8024 1 9133
920 -0.943232 0.159779 11.0433 145 142 135 0.333148 4 7540 7 8203 6 7465 5 7687 9 9002 8 7528 3 8260 2 8032 10 9235
921 -0.943164 0.159564 11.0364 145 142 135 0.142296 4 7541 7 8204 6 7466 5 7688 8 7529
922 -0.383926 0.179071 11.123 134 127 121 0.456979 4 7543 7 8205 6 7468 9 8996 5 7684 8 7532 3 7150 2 8033 10 9231
923 -0.382911 0.178919 11.1268 134 127 121 0.027812 4 7544 7 8206
924 0.808914 0.158705 9.79759 149 149 141 0.426243 4 7552 7 8197 6 7472 8 7539 3 7164 2 6972
925 -2.82285 0.198591 10.4295 143 145 132 0.791784 4 7554 7 8242 6 7496 9 8306 8 7548 3 8270 2 8038 10 8509 1 9139
926 -2.22029 0.219723 10.5186 144 145 137 0.781652 4 7560 7 8244 6 7502 5 7730 9 8298 8 7549 3 8278 2 8048 1 9155 11 9232
927 -2.27299 0.223795 10.5074 123 122 105 0.821583 4 7562 7 8243 5 7734 8 7550 3 8277 2 8051 1 9154
928 0.899557 0.239325 9.79732 96 84 75 1.01338 4 7574 7 9001 6 7497 5 8438 9 9555 8 7557 3 7192 2 7006 10 9782 1 8073
929 0.842559 0.241302 9.79523 139 130 119 0.539238 4 7576 7 9007 6 7503 8 7560 3 8286 2 8062 1 9207
930 -5.83793 0.199181 8.75868 147 151 138 0.23335 4 7577 7 7224
931 1.75154 0.261273 9.93255 86 80 71 0.416419 4 7580 7 8998 6 8203 9 9540 8 7562 3 8290 2 7012
932 1.80982 0.262209 9.93953 131 131 118 0.426002 4 7581 7 8226 5 8429 9 8981 8 7564 2 7014
933 -6.66018 0.2068 8.62903 77 82 85 0.992394 4 7582 7 8279 6 7533 5 6804 9 7399 8 7580 3 9055 2 8813
934 -1.1267 0.316516 10.983 135 131 119 0.454607 4 7585 7 8252 6 7516 5 8459 9 9041 8 7568 3 8294 2 8064 10 9274 1 9187
935 -2.82625 0.288542 10.413 143 139 137 1.46914 4 7590 7 8267 9 8324 8 7575 3 8293 10 8531 1 9167
936 -2.27137 0.303803 10.4905 120 117 106 0.460391 4 7591 7 8264 6 7521 5 7764 9 8321 8 7576 3 8299 2 8063 10 8527 1 8035 11 10144
937 -5.49609 0.352597 10.3012 122 122 115 0.308295 4 7601 7 7247 5 6811 6 7546 8 7591 3 8307
938 -5.86693 0.282169 8.73828 137 139 136 0.779566 4 7605 7 7250 5 6815 8 6580 3 8312 2 8070 1 9929
939 -2.82131 0.374754 10.3937 138 143 139 0.861584 4 7609 7 8281 6 7540 5 7780 9 8352 2 7024 11 9294
940 -2.2197 0.397124 10.4819 140 147 140 0.746618 4 7612 7 8284 6 7545 5 7778 9 8347 8 7597 3 8318 2 8100 1 9204 11 9274
941 -5.9541 0.332863 8.67052 136 133 127 0.782873 4 7620 7 8316 6 7579 5 7809 9 8409 8 7621 3 8323 2 8838 10 8613 1 9940
942 -0.945466 0.478862 10.9782 127 132 117 0.387517 4 7623 7 8297 5 7782 6 7561 9 9063 8 7607 3 8326 2 8114 10 9297
943 0.898993 0.410377 9.75347 105 84 83 1.19396 4 7624 7 9020 6 8215 5 8925 9 9581 8 7614 3 8328 2 8121 10 10204 1 9247
944 -0.382604 0.497212 11.055 129 131 120 0.33053 4 7625 7 8299 6 7568 5 8486 9 9061 8 7613 10 9289
945 -2.8271 0.455414 10.3838 137 142 136 0.672546 4 7628 7 8308 6 7575 5 7802 9 8369 8 7622 3 8331 2 8111
946 1.75395 0.438442 9.89223 102 84 90 0.750504 4 7630 7 9021 6 7548 9 9570 8 7617 3 8334 2 8129 10 10199
947 -2.72146 0.498121 10.3809 129 127 117 0.7396 4 7634 7 7270 6 6575 5 7810 9 8388 8 7624 3 8339 2 8131 10 7630 1 9224
948 -6.70954 0.403099 8.55516 129 132 121 1.08677 4 7637 7 7292 6 7595 9 8433 8 7635 3 8343 2 8850 10 8634 1 9946 5 7833
949 -5.49609 0.513185 10.2703 114 122 111 0.473935 4 7638 7 7286 6 6590 5 6852 9 7445 8 7632 3 8344
950 1.56588 0.495085 9.84963 58 65 70 1.12079 4 7641 7 9028 6 6571 9 9043 3 7281 2 8141
951 1.56588 0.495085 9.84963 58 65 70 1.12079 4 7642 7 9027 9 9042 6 6570 3 7282 2 8142
952 -5.54974 0.530487 10.2558 63 58 55 0.467646 4 7643 7 7294 6 6602 5 6859 9 7451 8 6618 10 7689 11 7982
953 -2.82249 0.529293 10.3647 134 137 133 0.606815 4 7647 7 8326 6 7591 5 7822 9 8400 8 7633 3 8345 2 8137 1 9229 11 9335
954 -2.26992 0.541701 10.441 113 113 111 0.694051 4 7648 7 8327 6 7592 5 7815 9 8393 8 7634 3 8350 1 8129 11 10191
955 -5.83106 0.429833 8.70347 141 134 117 0.567435 4 7650 7 8334 6 6607 5 7836 9 8429 8 7639 3 8353 2 8127 10 8630 1 9967
956 -5.5408 0.43536 8.76198 140 133 114 0.697853 4 7651 7 8335 5 7837 9 8426 8 7643 10 8623 1 9975
957 1.28806 0.53279 9.75957 122 123 115 0.341927 4 7656 7 8320 6 7587 5 8493 9 9053 8 7641 3 8359 2 8149 10 9819 1 9273
958 1.54175 0.543103 9.80443 122 121 111 0.480111 4 7657 7 8321 6 7588 5 8494 9 9589 8 7642 3 8361 2 7098 1 8175
959 -5.52389 0.585111 10.2486 107 109 100 0.563933 4 7658 7 7309 6 6619 5 6884 9 7459 8 6630
960 -2.72082 0.583373 10.3575 118 125 137 0.510975 4 7663 7 8339 6 7596 5 7829 9 8406 8 7647 3 8363 2 8147 10 8606 1 9246 11 9347
961 -2.79895 0.589035 10.3441 115 130 140 0.979856 4 7664 7 8343 6 7601 5 8517 8 7648 3 8366 2 8148 1 9245
962 -2.31842 0.596454 10.4135 122 132 144 0.656569 4 7665 7 8340 6 7599 5 8514 9 8405 8 6633 3 8367 2 8153 10 8605 1 9255 11 9334
963 -6.34956 0.493947 8.57844 148 147 134 0.782956 4 7671 7 7326 5 6895 9 7468 8 7659 3 8376 10 7698
964 1.87851 0.616261 9.88749 85 72 56 0.293603 4 7677 7 9041 9 9601
965 0.83831 0.611481 9.69822 143 135 117 0.682376 4 7681 7 9045 6 8238 5 8945 9 9614 8 8333 3 8378 2 8165 10 10241 11 11596
966 -1.00535 0.708727 10.9261 139 141 138 0.662985 4 7683 7 8358 6 7618 5 8520 9 9107 8 7662 3 8380 2 8167 10 9861 1 9278 11 10793
968 2.00178 0.651206 9.87176 119 112 90 0.641443 4 7688 7 9046 6 7612 8 7669 3 8383
969 1.57893 0.661208 9.8216 138 132 114 0.698935 4 7690 3 8385 2 8171
970 -4.50635 0.72329 10.3873 109 99 96 0.251482 4 7692 7 8371
971 -2.14827 0.717473 10.3091 116 100 84 0.792368 4 7694 7 9050 5 8526 8 7675 3 8387 2 8877 1 10029
972 -5.54752 0.730029 10.2137 74 60 57 0.694685 4 7696 7 7361 6 6661 5 6914 9 7487 8 7677 10 7715 11 8039
973 -4.05966 0.745064 10.4396 77 67 62 0.515663 4 7701 7 8372 6 7629 5 7882 3 8395 2 8180
974 -4.05966 0.745064 10.4396 77 67 62 0.515663 4 7702 7 8373 6 7628 5 7883 3 8394 2 8179
975 -5.48715 0.745098 10.2219 111 114 111 0.53478 4 7706 7 7365 6 7635 8 7679 3 8400
976 -4.18226 0.768904 10.4175 121 118 106 0.380948 4 7708 7 8379 6 7636 5 7893 9 8460 8 7680 3 8403 2 8187 10 8649 1 9274 11 10260
977 -4.00238 0.77314 10.4495 122 120 108 0.53459 4 7709 7 8380 6 7637 5 7894 9 8459 8 7681 3 8404 2 8188 10 8650 1 10025 11 10253
978 -5.39841 0.634084 8.7115 147 142 124 0.404482 4 7710 7 8381 6 7639 5 7900 3 8413
979 -0.989508 0.82212 10.901 79 72 61 0.735379 4 7713 7 8376 6 6664 5 7878 9 9129 8 6684 3 8408 2 7160 1 9299 11 10806
980 -0.933553 0.859539 10.8994 128 122 110 0.32224 4 7718 7 8384 6 7642 5 8535 9 9134 8 7694 3 8416 2 8199 10 9362 1 9308
981 0.409739 0.892343 11.0929 58 52 55 0.507007 4 7720 7 8386 3 8418 2 7177 1 8240
982 -0.198615 0.883124 11.0077 113 107 93 0.287528 4 7722 7 8390 6 7645 5 8533 9 9132 8 7697 3 8419 2 8202 10 9359 1 9315
983 1.08493 0.80654 9.72011 72 60 35 0.67613 4 7724 7 9068 6 8262 5 8957 9 9636 8 7708 3 8425 2 8207 10 10270 1 9324 11 11615
984 -6.31724 0.6988 8.57735 151 147 135 0.330454 4 7725 7 7383 5 6945 9 7517
985 1.83179 0.856033 9.82657 105 96 90 0.69194 4 7732 7 9075 6 8269 5 8961 9 9637 3 8430 10 10268
986 1.83179 0.856033 9.82657 105 96 90 0.69194 4 7733 7 9076 6 8270 5 8962 9 9638 3 8429 10 10269
987 -0.235776 0.946967 10.9901 86 70 70 0.894069 4 7736 7 9077 6 8268 9 9646 3 8428 2 8906 10 10277
988 -4.03938 0.899786 10.3865 120 125 119 0.477584 4 7737 7 8414 5 7923 9 8489 2 8216 10 8665 1 9304
989 -0.254061 1.00517 10.9554 116 122 120 0.419015 4 7744 7 8421 5 8560 9 9146 8 7716 3 7402 2 7207 10 9375 1 9335
990 -0.254019 1.00526 10.9552 116 122 120 0.429728 4 7745 7 8422 5 8561 9 9147 8 7717 3 7403 2 7208 10 9376
991 -5.8631 0.78377 8.63084 148 142 118 0.434205 4 7747 7 7411 6 6713 5 6966 9 7537 8 6734 3 8453 2 8226 10 7753 1 10048
992 1.69651 0.918651 9.7878 124 111 102 0.463908 4 7750 7 9089 6 7669 5 8555 9 9642 8 7722 3 7407 2 7210 10 10275
993 2.00147 0.928403 9.82968 122 115 100 0.34021 4 7751 7 9090 6 8279 8 7723
994 -2.7286 0.951901 10.2974 123 124 110 0.902078 4 7752 7 8429 6 6714 5 7935 9 8494 8 7720 3 8451 2 8240 1 9326 11 10263
995 -2.30385 0.96125 10.3575 126 120 109 0.558494 4 7754 7 8430 6 7672 5 7936 9 9161 8 7724 2 8242 1 9329
996 -5.49484 1.01195 10.1771 101 104 95 0.572036 4 7758 7 8435 6 7678 5 7957 9 8527 8 7733 3 8459 10 8704
997 -4.74859 1.03227 10.2829 111 112 109 0.587418 4 7762 7 8439 6 7686 5 7961 9 8524 8 7737 3 8464 2 8926 10 8701 1 10070
998 -4.18008 1.04577 10.3612 115 120 116 0.443059 4 7765 7 8445 6 7687 5 7962 9 9188 8 7738 3 8465 2 8252 10 9410 1 10073 11 10287
999 -4.002 1.05205 10.3928 119 117 110 0.479163 4 7766 7 8446 6 7692 5 7963 9 8525 8 7739 3 8470 2 8932 10 8695 1 10074
1000 -2.80796 1.02277 10.2497 126 123 115 0.551975 4 7767 7 8440 6 7682 5 8573 9 9176 8 6753 3 7436 2 7239
1001 -1.06585 1.09917 10.8347 90 81 86 0.681301 4 7770 7 8447 6 7688 5 7955 9 9165 8 7745 3 8461 2 8256
1002 -0.998012 1.09929 10.8424 85 70 73 0.418768 4 7771 7 8448 6 7683 5 7956 9 9166 8 6756 3 7437
1003 -2.03691 1.06805 10.3237 115 109 93 1.15453 4 7777 7 9109 6 8305 5 8589 9 9679 8 8387 3 8477 2 7247 10 9912
1004 -1.12522 1.1301 10.8158 120 123 122 0.496913 4 7780 7 8457 6 7700 5 8591 9 9178 8 7758 3 8479 2 8267 1 9359 11 10860
1005 -0.211233 1.15429 10.9545 110 118 113 0.38104 4 7782 7 8462 6 7703 5 8587 9 9168 8 7761 3 8481 1 9364
1006 -0.944822 1.13613 10.8452 118 118 114 0.442187 4 7784 7 8461 6 7701 5 8592 9 9173 8 7759 3 8480 2 8268 10 9397 1 9360 11 10856
1007 1.6961 1.07242 9.75604 124 123 106 0.769233 4 7788 7 9114 6 8307 5 8991 9 9987 8 8394 3 8488 2 8275 10 10285
1008 0.83545 1.0524 9.6176 136 127 122 0.402657 4 7792 7 9119 6 8311 9 9669 5 8994 8 8398 3 8497 2 8281 10 10288 11 11302
1009 1.13235 1.05694 9.67143 128 128 118 0.687455 4 7793 7 9117 6 7713 5 8597 9 9665 8 7776 3 8492 2 8274 10 10287 11 11297
1010 1.48417 1.14488 9.759 79 93 104 0.477772 4 7815 7 9130 9 9682 5 9007 8 7793 2 8294 10 10294 11 11304
1011 -0.211247 1.31315 10.9258 109 108 114 0.215622 4 7827 7 8517 6 7757 9 9213 8 7805 3 8526
1012 -0.383195 1.31385 10.8907 112 115 104 0.325339 4 7829 7 8519 6 7756 5 8623 9 9215 8 7806 3 8529 2 8307 10 9948
1013 1.13466 1.22229 9.62801 125 125 107 0.499327 4 7852 7 9144 6 8337 9 9705 8 7830 3 8537 2 8311 10 10313
1014 1.75748 1.26347 9.72901 90 72 66 0.600041 4 7860 7 9147 6 8339 5 9023 9 9706 8 7837 3 8547 2 7304 10 10315 1 6964
1015 -6.59298 1.14152 8.4374 149 132 105 0.647953 4 7872 7 7516 6 6826 5 7070 3 8569
1016 -0.384866 1.47335 10.8631 104 108 109 0.618132 4 7880 7 8561 6 7800 5 8644 9 9248 8 7852 3 8565 2 8352 1 9447
1017 0.896028 1.36958 9.56717 78 63 61 0.816401 4 7899 7 9164 9 9734 3 8572 2 7365 10 10342 1 8435 11 11689
1018 0.896213 1.36915 9.5664 78 63 61 0.782278 4 7900 7 9163 6 8355 5 9049 9 9733 8 8447 3 8571 2 7366 10 10343 11 11690
1019 1.06937 1.38829 9.59474 89 68 67 0.699354 4 7904 7 9173 6 8361 5 9058 9 10022 8 8450 3 8579 10 10346 11 11691
1020 1.06929 1.38716 9.59176 89 68 67 0.56762 4 7905 7 9174 6 8362 5 9059 8 8451 3 8580 10 10347
1021 1.13107 1.38534 9.60262 126 124 110 0.716015 4 7906 7 9168 6 8358 9 9737 5 8657 8 7873 3 8581 2 8364 10 10348 5 9060 11 11345
1022 -2.98689 1.45009 10.1094 77 81 80 0.570173 4 7914 7 8578 6 7814 8 7866 3 9232 2 9006 1 10642
1023 -2.98689 1.45009 10.1094 77 81 80 0.570173 4 7915 7 8579 6 7813 8 7867 3 9233 2 9005 1 10641
1024 -5.86068 1.27458 8.52787 138 134 122 0.453902 4 7921 7 7560 6 6872 5 7116 9 7669 8 6894 3 8613 2 8395 1 9459
