//X Y Z Rf Gf Bf Intensity
673
0.62367201 -2.10926008 12.91559982 0.756863 0.929412 0.984314 15.000000
-0.59483498 0.50700599 11.06809998 0.356863 0.294118 0.301961 15.000000
-2.77666998 -0.92032999 10.72539997 0.356863 0.411765 0.501961 15.000000
-2.51802993 -0.57998902 10.53660011 0.411765 0.47451 0.576471 15.000000
1.53887999 -0.53434497 10.12590027 0.529412 0.454902 0.321569 15.000000
1.58524001 1.76684999 9.66567039 0.431373 0.458824 0.447059 15.000000
-3.86002994 0.63082302 10.45989990 0.211765 0.294118 0.376471 15.000000
0.90227300 -0.08679490 9.93064976 0.611765 0.631373 0.592157 15.000000
-6.61918020 -0.31957501 8.64968014 0.568627 0.592157 0.603922 15.000000
-0.98076600 0.85353601 10.88179970 0.454902 0.458824 0.439216 15.000000
-0.21418700 -0.18507500 11.28160000 0.482353 0.486275 0.447059 15.000000
-4.24896002 0.40072200 10.43519974 0.556863 0.584314 0.576471 15.000000
1.46279001 0.52731001 9.86184978 0.219608 0.258824 0.27451 15.000000
-2.11806011 2.04054999 9.80963039 0.301961 0.376471 0.411765 15.000000
0.43074000 0.84624898 9.82283020 0.4 0.364706 0.34902 15.000000
-5.87632990 -0.35253799 8.78645039 0.313725 0.301961 0.321569 15.000000
-1.19041002 2.31151009 10.10439968 0.168627 0.2 0.258824 15.000000
-5.57196999 1.89482999 9.88749981 0.239216 0.239216 0.203922 15.000000
-0.55593902 0.10110400 11.15349960 0.34902 0.321569 0.329412 15.000000
-4.25207996 -0.14736401 10.54889965 0.529412 0.494118 0.486275 15.000000
-4.27189016 1.66896999 10.17520046 0.247059 0.231373 0.239216 15.000000
-4.26035023 -0.25358301 10.53890038 0.564706 0.537255 0.494118 15.000000
-1.81731999 0.25988099 10.91020012 0.392157 0.403922 0.329412 15.000000
-0.76316100 1.99208999 10.71800041 0.356863 0.356863 0.376471 15.000000
-6.59903002 1.44080997 8.28775978 0.356863 0.301961 0.301961 15.000000
-4.06115007 -0.35404399 10.58010006 0.521569 0.513725 0.431373 15.000000
-3.98723006 -0.37219599 10.59580040 0.541176 0.509804 0.458824 15.000000
-6.98364019 -0.82644200 8.62397003 0.458824 0.403922 0.368627 15.000000
-2.21238995 -0.12206900 10.59599972 0.54902 0.556863 0.486275 15.000000
-2.60128999 -0.31158701 10.55119991 0.592157 0.556863 0.513725 15.000000
-6.30381012 1.93065000 8.28722954 0.294118 0.364706 0.419608 15.000000
-5.47172022 -0.18381000 10.31589985 0.341176 0.34902 0.34902 15.000000
-2.60503006 -0.08070480 10.52060032 0.227451 0.258824 0.231373 15.000000
1.61550999 -0.31560400 10.11050034 0.411765 0.34902 0.309804 15.000000
-1.98772001 -1.15796006 11.62220001 0.392157 0.466667 0.603922 15.000000
-2.42601991 -0.34094399 10.60039997 0.458824 0.427451 0.411765 15.000000
-1.22107005 0.96776599 10.84000015 0.486275 0.482353 0.47451 15.000000
-6.21954012 -0.35547799 8.74633026 0.254902 0.356863 0.513725 15.000000
0.63160402 -0.63870299 9.89867973 0.54902 0.54902 0.431373 15.000000
-6.21988010 1.29876995 8.42650032 0.137255 0.156863 0.211765 15.000000
-0.14557201 -0.37249699 11.23919964 0.447059 0.419608 0.368627 15.000000
-3.02917004 0.96145302 10.23859978 0.364706 0.34902 0.356863 15.000000
0.57868999 1.43851995 9.56641960 0.447059 0.447059 0.439216 15.000000
0.85530502 0.79324901 9.75539970 0.337255 0.266667 0.184314 15.000000
-1.07810998 -0.29580301 11.11849976 0.509804 0.466667 0.4 15.000000
1.35151005 -0.48554900 10.09189987 0.556863 0.537255 0.458824 15.000000
-1.32218003 -1.12899005 11.72739983 0.439216 0.494118 0.639216 15.000000
1.40884995 -0.34175801 10.10260010 0.466667 0.403922 0.301961 15.000000
-5.66145992 -0.91220701 8.87063980 0.431373 0.494118 0.6 15.000000
-5.72410011 0.86665499 8.56614017 0.564706 0.541176 0.521569 15.000000
-4.02586985 2.03892994 10.11540031 0.219608 0.254902 0.294118 15.000000
-3.29761004 2.07797003 9.45506001 0.211765 0.27451 0.392157 15.000000
-3.14246988 -0.52146798 10.42140007 0.556863 0.54902 0.501961 15.000000
-4.64983988 0.31609899 10.48089981 0.439216 0.494118 0.592157 15.000000
-6.84069014 0.37282601 8.47041988 0.34902 0.309804 0.313725 15.000000
0.39690599 -2.04646993 12.37100029 0.764706 0.941176 0.992157 15.000000
-3.19398999 -0.20816500 10.43109989 0.576471 0.564706 0.482353 15.000000
0.63152999 0.78700203 9.69983006 0.447059 0.368627 0.341176 15.000000
-4.41092014 0.10939200 10.47560024 0.329412 0.321569 0.321569 15.000000
-2.26279998 -0.16997300 10.59039974 0.584314 0.564706 0.501961 15.000000
-5.82980013 0.95775801 8.52468967 0.47451 0.486275 0.419608 15.000000
-0.32974699 0.72263700 11.07530022 0.211765 0.227451 0.258824 15.000000
1.37409997 -1.44730997 10.67500019 0.309804 0.376471 0.494118 15.000000
1.14987004 -1.08799005 10.17899990 0.54902 0.494118 0.356863 15.000000
-2.26325011 -0.17019700 10.59060001 0.584314 0.564706 0.501961 15.000000
-6.64504004 1.39545000 8.28145981 0.364706 0.294118 0.258824 15.000000
0.38284501 -0.92561400 10.60179996 0.384314 0.34902 0.34902 15.000000
1.57719004 1.40625000 9.76152992 0.466667 0.521569 0.458824 15.000000
-2.21227002 -0.24151000 10.61410046 0.6 0.568627 0.537255 15.000000
-0.66715801 -0.08016850 11.17150021 0.482353 0.486275 0.439216 15.000000
-3.63659000 -2.04284000 11.85420036 0.247059 0.258824 0.309804 15.000000
-6.61315012 0.00151982 8.58143997 0.564706 0.584314 0.568627 15.000000
-1.77282000 -0.46867499 10.96010017 0.364706 0.403922 0.458824 15.000000
-4.37561989 0.04770810 10.49050045 0.239216 0.231373 0.211765 15.000000
-6.12812996 -0.15842800 8.68943024 0.541176 0.564706 0.541176 15.000000
-6.18836021 -0.85630000 8.73717022 0.521569 0.494118 0.431373 15.000000
-3.24646997 0.16599099 10.34770012 0.564706 0.564706 0.541176 15.000000
-5.68915987 0.43787599 10.16600037 0.494118 0.513725 0.513725 15.000000
1.25215006 1.13023996 9.80126953 0.309804 0.376471 0.419608 15.000000
0.57779402 -0.17631599 9.89046001 0.6 0.603922 0.592157 15.000000
-6.75765991 -0.30102000 8.62220955 0.6 0.631373 0.666667 15.000000
0.27488300 0.89243698 10.86789989 0.411765 0.392157 0.356863 15.000000
-3.19097996 -0.37034899 10.44009972 0.486275 0.47451 0.458824 15.000000
-1.37127995 0.24754800 10.98029995 0.34902 0.309804 0.282353 15.000000
-5.56275988 0.23619699 8.61730003 0.737255 0.819608 0.847059 15.000000
-3.02304006 1.55710995 10.08590031 0.447059 0.501961 0.521569 15.000000
1.70938003 -0.12231600 10.08430004 0.376471 0.301961 0.294118 15.000000
1.14129996 0.74752897 9.77147007 0.501961 0.501961 0.458824 15.000000
-2.43969989 0.95573598 10.32050037 0.501961 0.454902 0.376471 15.000000
1.37895000 -0.44212800 10.08080006 0.447059 0.47451 0.458824 15.000000
-1.17208004 0.22871301 11.01809978 0.541176 0.521569 0.466667 15.000000
-5.51043987 2.16385007 9.90614986 0.14902 0.156863 0.247059 15.000000
-1.66041005 -0.41205701 10.98410034 0.568627 0.537255 0.486275 15.000000
0.56558299 2.16638994 9.38041973 0.301961 0.364706 0.427451 15.000000
-2.68929005 -0.83146602 10.68920040 0.239216 0.34902 0.521569 15.000000
-0.47778699 -0.14131200 11.19880009 0.6 0.584314 0.529412 15.000000
-1.73277998 1.10632002 10.72539997 0.486275 0.494118 0.494118 15.000000
1.64461005 0.25765100 9.99584007 0.482353 0.466667 0.431373 15.000000
1.06910002 -2.00950003 11.01200008 0.411765 0.439216 0.529412 15.000000
1.25075996 -1.89146996 10.94719982 0.729412 0.941176 0.941176 15.000000
-6.79600000 0.36723399 8.47556973 0.368627 0.329412 0.321569 15.000000
-3.04076004 -1.93929005 11.74020004 0.419608 0.501961 0.603922 15.000000
-1.01811004 -0.96763402 11.29380035 0.447059 0.419608 0.403922 15.000000
-6.64133978 0.20831600 8.53347015 0.294118 0.301961 0.356863 15.000000
1.73378003 -0.35968700 10.13000011 0.576471 0.592157 0.54902 15.000000
0.64156997 1.07617998 9.65771008 0.231373 0.239216 0.192157 15.000000
1.69602001 -0.05147700 10.06809998 0.364706 0.321569 0.309804 15.000000
-1.46247995 1.29602003 10.74190044 0.439216 0.494118 0.447059 15.000000
-1.97379005 1.00351000 10.39120007 0.376471 0.356863 0.356863 15.000000
1.48667002 -0.06831410 10.03680038 0.356863 0.313725 0.34902 15.000000
-6.63902998 0.37459400 8.50356960 0.34902 0.309804 0.301961 15.000000
-6.31080008 1.82955003 8.31707001 0.286275 0.329412 0.364706 15.000000
-2.77552009 2.06746006 8.91164017 0.219608 0.247059 0.34902 15.000000
-5.18681002 -1.32221997 11.11999989 0.458824 0.584314 0.666667 15.000000
-6.63902998 0.37459400 8.50356960 0.34902 0.309804 0.301961 15.000000
-1.62052000 -2.05012012 12.49240017 0.156863 0.239216 0.368627 15.000000
-0.72348201 0.66562498 10.99899960 0.486275 0.458824 0.4 15.000000
0.67149597 -1.91851997 12.59090042 0.486275 0.576471 0.666667 15.000000
-4.28381014 0.36870500 10.44340038 0.309804 0.286275 0.286275 15.000000
-1.00682998 -0.39919901 11.09060001 0.521569 0.501961 0.403922 15.000000
-5.63325977 0.74167901 8.58677006 0.501961 0.486275 0.482353 15.000000
-0.40876001 0.02891220 11.18649960 0.458824 0.47451 0.454902 15.000000
-4.20855999 0.29455301 10.46090031 0.529412 0.521569 0.494118 15.000000
-4.03833008 0.43974999 10.57129955 0.364706 0.431373 0.501961 15.000000
-3.37438011 0.35802701 10.28730011 0.54902 0.576471 0.537255 15.000000
-3.24361992 0.32432699 10.31330013 0.54902 0.556863 0.54902 15.000000
-1.97856998 0.93387598 10.39150047 0.611765 0.631373 0.603922 15.000000
-4.33865976 -0.33689499 10.57800007 0.501961 0.411765 0.411765 15.000000
-1.28445005 1.01207995 10.84549999 0.239216 0.247059 0.176471 15.000000
-3.83507991 -0.61625201 10.73980045 0.47451 0.486275 0.521569 15.000000
-3.73607993 -0.08170600 10.61699963 0.501961 0.513725 0.521569 15.000000
-2.14190006 0.44180399 10.48970032 0.537255 0.54902 0.509804 15.000000
-2.06308007 2.09049010 9.70991993 0.34902 0.411765 0.529412 15.000000
-1.37169003 0.51386499 10.92800045 0.337255 0.286275 0.282353 15.000000
-2.67293000 0.56899202 10.41259956 0.27451 0.309804 0.431373 15.000000
-0.59745002 0.32499999 11.10439968 0.329412 0.266667 0.282353 15.000000
-0.66667300 0.39948499 11.06859970 0.509804 0.494118 0.447059 15.000000
-1.94720995 1.98678994 10.52810001 0.329412 0.34902 0.356863 15.000000
-2.94211006 0.84952801 10.14920044 0.513725 0.501961 0.466667 15.000000
-5.53822994 -0.03990800 10.36900043 0.211765 0.286275 0.376471 15.000000
-0.66745597 0.56316602 11.03719997 0.494118 0.494118 0.447059 15.000000
0.53878301 0.39226699 9.68447971 0.74902 0.819608 0.921569 15.000000
-5.68150997 0.24430899 9.37110043 0.431373 0.447059 0.466667 15.000000
-6.86410999 -1.43646002 9.08444023 0.203922 0.294118 0.47451 15.000000
-1.19797003 0.14566199 11.02840042 0.556863 0.54902 0.513725 15.000000
-0.81161100 2.54588008 10.63459969 0.368627 0.431373 0.486275 15.000000
-6.92261982 0.45307699 8.42418003 0.47451 0.486275 0.431373 15.000000
-4.21446991 -0.18341300 10.56159973 0.521569 0.521569 0.466667 15.000000
-4.02532005 -0.10662600 10.56250000 0.513725 0.509804 0.47451 15.000000
0.82147199 -2.13229990 12.65439987 0.4 0.364706 0.403922 15.000000
-3.04169011 0.21484999 10.37020016 0.631373 0.619608 0.556863 15.000000
-5.90386009 0.59364003 8.59247017 0.376471 0.266667 0.27451 15.000000
-4.17571020 1.98646998 10.08740044 0.494118 0.521569 0.556863 15.000000
-1.36415005 1.80697000 10.66399956 0.231373 0.247059 0.247059 15.000000
-3.23797011 0.52662200 10.27610016 0.564706 0.576471 0.537255 15.000000
-0.12894000 2.08888006 10.80249977 0.376471 0.403922 0.486275 15.000000
-1.00708997 -0.69940400 11.28800011 0.266667 0.411765 0.592157 15.000000
-3.00764990 0.64826697 10.26949978 0.47451 0.458824 0.411765 15.000000
-0.42627200 0.73695803 11.04570007 0.494118 0.486275 0.494118 15.000000
-6.08895016 0.04435950 8.66786003 0.592157 0.592157 0.537255 15.000000
-6.57719994 -0.05707220 8.59766006 0.576471 0.564706 0.521569 15.000000
0.59464598 0.49234900 9.74073029 0.321569 0.329412 0.337255 15.000000
0.80873400 0.24958000 9.84922028 0.639216 0.627451 0.592157 15.000000
-0.58925599 0.82409900 10.99930000 0.282353 0.231373 0.168627 15.000000
1.28911996 0.70266098 9.84197044 0.521569 0.458824 0.368627 15.000000
0.13806100 -0.25080100 11.33259964 0.247059 0.239216 0.247059 15.000000
-5.69075012 1.31389999 9.17706966 0.419608 0.458824 0.447059 15.000000
-6.51559019 -1.92695999 11.16959953 0.564706 0.592157 0.584314 15.000000
-5.71600008 0.33706701 10.18379974 0.47451 0.47451 0.447059 15.000000
-0.90874100 0.64994699 10.92070007 0.184314 0.247059 0.27451 15.000000
-6.60059977 0.73060000 8.43122959 0.321569 0.27451 0.337255 15.000000
0.67756301 1.25343001 9.63397026 0.239216 0.258824 0.231373 15.000000
-6.01653004 -0.30858201 8.73855019 0.6 0.639216 0.603922 15.000000
0.74230301 0.87972301 9.71278000 0.341176 0.286275 0.258824 15.000000
-8.06237984 1.99916005 8.97961044 0.984314 0.984314 0.901961 15.000000
0.46721601 -0.82397002 10.44509983 1 1 0.937255 15.000000
-5.72334003 0.93877298 10.06960011 0.219608 0.211765 0.203922 15.000000
-5.16605997 0.80103201 10.18990040 0.431373 0.447059 0.403922 15.000000
-5.94542980 1.65952003 8.31995964 0.247059 0.286275 0.356863 15.000000
0.44693100 0.75481200 9.67698956 0.27451 0.266667 0.219608 15.000000
-5.10360003 0.99429202 10.17210007 0.247059 0.231373 0.219608 15.000000
-1.73046994 2.25873995 10.52569962 0.176471 0.203922 0.266667 15.000000
-5.10688019 1.02753997 10.17070007 0.247059 0.231373 0.219608 15.000000
1.48040998 1.17007005 9.78341007 0.482353 0.427451 0.439216 15.000000
-4.23730993 0.06262740 10.50070000 0.537255 0.513725 0.513725 15.000000
-0.85285801 -0.06799780 11.13819981 0.501961 0.47451 0.419608 15.000000
-4.95180988 0.93075502 10.20520020 0.458824 0.458824 0.411765 15.000000
-5.06096983 1.26147997 10.14859962 0.239216 0.2 0.203922 15.000000
-0.60767800 -1.23711002 11.89879990 0.101961 0.176471 0.266667 15.000000
-4.39626980 0.92776603 10.30889988 0.337255 0.309804 0.282353 15.000000
-5.74765015 -0.69268000 10.44610023 0.403922 0.458824 0.592157 15.000000
0.93454999 1.44543004 9.62837029 0.431373 0.439216 0.364706 15.000000
-4.25022984 0.93265599 10.33090019 0.309804 0.27451 0.286275 15.000000
-5.64238024 1.94802999 8.83635998 0.168627 0.239216 0.286275 15.000000
-4.74971008 0.14382300 10.49100018 0.219608 0.321569 0.439216 15.000000
-6.22183990 -1.26206994 8.92306995 0.301961 0.329412 0.419608 15.000000
-4.27759981 1.04298997 10.30259991 0.294118 0.258824 0.286275 15.000000
-5.38677979 -1.06024003 10.53499985 0.47451 0.494118 0.458824 15.000000
0.84804499 0.34294799 9.84743023 0.529412 0.458824 0.403922 15.000000
-5.60201979 -0.87269503 10.45790005 0.521569 0.556863 0.54902 15.000000
1.49572003 0.16939600 9.98948002 0.431373 0.356863 0.34902 15.000000
-2.78290009 -1.34652996 10.79170036 0.356863 0.376471 0.403922 15.000000
-2.95778990 -0.08302580 10.44489956 0.513725 0.501961 0.447059 15.000000
-3.07539010 1.10407996 10.14229965 0.466667 0.427451 0.376471 15.000000
-2.77799010 1.01618004 10.26019955 0.231373 0.239216 0.239216 15.000000
-0.73053902 0.12796000 11.11380005 0.537255 0.509804 0.439216 15.000000
-1.56871998 0.94056898 10.72039986 0.4 0.4 0.4 15.000000
-2.06279993 0.51295501 10.47749996 0.647059 0.686275 0.694118 15.000000
-0.19717000 0.60518098 11.11769962 0.156863 0.2 0.329412 15.000000
-5.73663998 -0.62072599 8.85620022 0.321569 0.313725 0.384314 15.000000
-1.24963999 1.01287997 10.83460045 0.321569 0.282353 0.266667 15.000000
-6.14755011 -1.30219996 8.92212009 0.411765 0.427451 0.458824 15.000000
0.12958600 -2.12613010 12.54119968 0.329412 0.356863 0.466667 15.000000
2.48776007 0.65298402 9.71753979 0.176471 0.164706 0.647059 15.000000
0.45888501 0.89086401 9.79051018 0.501961 0.564706 0.619608 15.000000
-6.00359011 0.61355299 8.57003975 0.4 0.329412 0.301961 15.000000
-1.07175004 0.59349298 10.97780037 0.203922 0.266667 0.337255 15.000000
0.32544199 1.95956004 10.24339962 0.356863 0.4 0.411765 15.000000
-0.87260699 0.85215300 10.89190006 0.439216 0.447059 0.431373 15.000000
-0.65880799 1.05598998 10.94960022 0.447059 0.431373 0.384314 15.000000
-5.83700991 1.68122995 8.33232021 0.419608 0.431373 0.482353 15.000000
-1.74774003 -0.66696602 11.17080021 0.254902 0.4 0.603922 15.000000
-6.23722982 1.65666997 8.27048969 0.282353 0.309804 0.356863 15.000000
-5.34968996 -0.53774899 10.33749962 0.537255 0.521569 0.486275 15.000000
-6.06020021 0.11431000 8.65227032 0.6 0.627451 0.603922 15.000000
0.65251100 0.87113500 9.68556023 0.384314 0.286275 0.294118 15.000000
1.37741005 0.90193897 9.81299973 0.494118 0.466667 0.392157 15.000000
0.67025399 1.35432994 9.59953022 0.286275 0.231373 0.219608 15.000000
-1.22861004 -0.10756500 11.07009983 0.431373 0.376471 0.309804 15.000000
-7.04831982 -0.89450002 8.59414959 0.631373 0.647059 0.658824 15.000000
1.76450002 0.80857301 9.90740967 0.313725 0.286275 0.231373 15.000000
-6.33262014 1.65617001 8.25506973 0.447059 0.501961 0.537255 15.000000
-5.68759012 0.11485900 10.21399975 0.466667 0.454902 0.411765 15.000000
-2.77748990 -0.89877898 10.72760010 0.439216 0.529412 0.619608 15.000000
-5.23085022 1.00996006 10.12590027 0.513725 0.494118 0.458824 15.000000
1.73151004 0.84874398 9.90147972 0.439216 0.4 0.368627 15.000000
-2.99268007 -1.93277001 11.75879955 0.364706 0.458824 0.592157 15.000000
-3.06138992 0.27571499 10.35980034 0.556863 0.537255 0.529412 15.000000
-6.63052988 1.00558996 8.36791039 0.34902 0.266667 0.337255 15.000000
-5.74631977 0.97050202 9.62306023 0.231373 0.239216 0.227451 15.000000
-5.65669012 -0.53333998 10.29259968 0.494118 0.482353 0.419608 15.000000
-4.83976984 -0.07754580 10.43299961 0.329412 0.337255 0.301961 15.000000
-6.03030014 -0.92450899 8.86229038 0.419608 0.537255 0.666667 15.000000
-0.34628901 2.37003994 10.22099972 0.337255 0.384314 0.458824 15.000000
-5.77449989 -0.16366500 10.27359962 0.231373 0.231373 0.211765 15.000000
-5.82111979 1.03359997 8.50681973 0.501961 0.47451 0.419608 15.000000
-4.28979015 -0.21419799 10.54959965 0.576471 0.501961 0.403922 15.000000
-4.15764999 -0.60687399 10.66510010 0.231373 0.329412 0.47451 15.000000
-5.69011021 1.08429003 10.04249954 0.439216 0.419608 0.419608 15.000000
-5.62412977 -0.15433000 10.30620003 0.486275 0.509804 0.521569 15.000000
-0.65945500 1.37356997 10.87370014 0.439216 0.466667 0.419608 15.000000
-0.41540200 -0.78359300 11.51659966 0.431373 0.439216 0.4 15.000000
-0.47055700 1.36986005 10.91699982 0.266667 0.231373 0.227451 15.000000
-6.50644016 0.68540603 8.46168995 0.592157 0.576471 0.529412 15.000000
0.12562500 -1.55858004 12.41259956 0.54902 0.592157 0.658824 15.000000
-4.44618988 -0.18259400 10.51459980 0.509804 0.513725 0.454902 15.000000
0.65335798 0.84783399 9.70926952 0.509804 0.431373 0.403922 15.000000
0.81622499 1.00177002 9.70613956 0.294118 0.254902 0.27451 15.000000
-0.47202799 -0.38178000 11.18500042 0.529412 0.537255 0.501961 15.000000
1.07603002 1.84315002 9.56375980 0.392157 0.403922 0.384314 15.000000
1.37810004 1.18730998 9.75603008 0.47451 0.454902 0.392157 15.000000
1.51786005 0.42587200 9.93805027 0.411765 0.329412 0.341176 15.000000
-4.14613008 0.18997100 10.49849987 0.556863 0.568627 0.564706 15.000000
-1.32354999 0.96412498 10.81490040 0.466667 0.47451 0.458824 15.000000
-3.34164000 -0.37979501 10.42500019 0.384314 0.34902 0.294118 15.000000
-6.74460983 1.66611004 8.16394997 0.576471 0.568627 0.509804 15.000000
-6.88600016 1.13534999 8.29996014 0.537255 0.576471 0.431373 15.000000
-5.98212004 1.16776001 8.45860004 0.341176 0.294118 0.258824 15.000000
-5.94735003 1.50750995 8.40130997 0.301961 0.258824 0.227451 15.000000
-0.94358897 0.75843602 10.91110039 0.486275 0.521569 0.556863 15.000000
-3.98605990 -1.07822001 10.78730011 0.364706 0.321569 0.247059 15.000000
-4.69026995 -0.01444950 10.46319962 0.376471 0.454902 0.576471 15.000000
-5.01352978 1.34170997 10.11740017 0.247059 0.211765 0.231373 15.000000
-4.36459017 1.36146998 10.22620010 0.254902 0.227451 0.247059 15.000000
-1.28813004 0.05648160 11.03660011 0.392157 0.337255 0.321569 15.000000
-6.15154982 1.83738995 8.25238037 0.564706 0.556863 0.576471 15.000000
-2.74380994 1.24474001 10.30550003 0.356863 0.458824 0.576471 15.000000
-4.27444983 1.34872997 10.24380016 0.247059 0.239216 0.247059 15.000000
-2.89643002 -0.21405300 10.48519993 0.584314 0.54902 0.447059 15.000000
-0.32603100 -0.44629699 11.24250031 0.184314 0.27451 0.329412 15.000000
-1.24110997 1.44806004 10.76410007 0.27451 0.258824 0.231373 15.000000
-6.88622999 1.35293996 8.25321960 0.556863 0.529412 0.384314 15.000000
-6.60577011 1.47424996 8.28437042 0.603922 0.584314 0.482353 15.000000
-3.54557991 -2.16412997 11.96140003 0.184314 0.231373 0.313725 15.000000
0.14929800 0.87573498 11.10700035 0.227451 0.192157 0.211765 15.000000
-6.50213003 1.45508003 8.29088020 0.6 0.576471 0.466667 15.000000
-4.33728981 -0.33693799 10.57619953 0.509804 0.458824 0.494118 15.000000
0.64701802 -0.01927670 9.87429047 0.392157 0.341176 0.34902 15.000000
-6.01276016 1.39368999 8.40604019 0.247059 0.211765 0.184314 15.000000
-5.73266983 1.32174003 8.46327972 0.521569 0.509804 0.486275 15.000000
-6.40422010 1.29870999 8.41364002 0.14902 0.156863 0.211765 15.000000
0.62147701 0.03709730 9.85295010 0.619608 0.627451 0.682353 15.000000
-5.71564007 1.74895000 9.90851021 0.184314 0.192157 0.2 15.000000
0.85566503 0.70255703 9.77038002 0.227451 0.266667 0.254902 15.000000
0.73808497 -2.16438007 12.65429974 0.321569 0.294118 0.356863 15.000000
-5.57269001 1.71129000 8.38860989 0.211765 0.239216 0.227451 15.000000
-5.57679987 0.16619100 8.87487030 0.529412 0.403922 0.427451 15.000000
-5.66302013 -0.60370499 10.29640007 0.337255 0.431373 0.537255 15.000000
-4.23394012 1.52143002 10.22599983 0.384314 0.384314 0.431373 15.000000
1.69860005 0.83337897 9.89463997 0.329412 0.294118 0.266667 15.000000
-6.64941978 -0.06178030 8.59309959 0.337255 0.301961 0.329412 15.000000
-1.26065004 1.97838998 10.63080025 0.403922 0.439216 0.454902 15.000000
0.43100101 0.79465801 9.83800983 0.309804 0.309804 0.286275 15.000000
-5.74679995 1.80478001 8.35130024 0.447059 0.466667 0.486275 15.000000
1.75885999 0.10077500 10.04179955 0.494118 0.537255 0.513725 15.000000
-5.32824993 0.86021298 10.11419964 0.521569 0.494118 0.419608 15.000000
-1.20785999 2.21174002 10.13679981 0.309804 0.34902 0.411765 15.000000
-1.12670004 -0.83289999 11.29189968 0.564706 0.564706 0.541176 15.000000
-1.20737004 2.21190000 10.13560009 0.309804 0.34902 0.411765 15.000000
-2.71883988 1.66875005 10.21619987 0.321569 0.282353 0.231373 15.000000
1.61369002 1.64184999 9.70777035 0.34902 0.301961 0.321569 15.000000
-1.16834998 2.23779011 10.14159966 0.14902 0.203922 0.239216 15.000000
-0.91013300 -0.09563890 11.15480042 0.431373 0.431373 0.411765 15.000000
-3.07600999 -0.19593300 10.45199966 0.576471 0.541176 0.501961 15.000000
-1.11106002 -0.32550099 11.10739994 0.529412 0.494118 0.403922 15.000000
1.19105005 2.15506005 9.46879959 0.211765 0.247059 0.301961 15.000000
-0.76213902 2.13174009 10.67630005 0.164706 0.176471 0.219608 15.000000
0.99661899 -2.09381008 11.05620003 0.164706 0.211765 0.47451 15.000000
1.90249002 2.24217010 9.59304047 0.176471 0.219608 0.219608 15.000000
0.93166298 0.71070099 9.74102974 0.639216 0.654902 0.584314 15.000000
-2.22361994 -1.79396999 12.06410027 0.447059 0.447059 0.431373 15.000000
-0.55593902 0.10110400 11.15349960 0.34902 0.321569 0.329412 15.000000
-4.40744019 1.02849996 10.27579975 0.447059 0.466667 0.447059 15.000000
1.06712997 2.00190997 9.51957035 0.356863 0.368627 0.384314 15.000000
-6.18240023 -1.01492000 8.87078953 0.537255 0.576471 0.576471 15.000000
-4.39228010 1.65069997 10.16149998 0.494118 0.54902 0.54902 15.000000
0.67048401 1.35483003 9.59937954 0.286275 0.231373 0.219608 15.000000
1.70129001 0.27541900 10.00240040 0.419608 0.376471 0.419608 15.000000
0.99542600 -0.59884602 9.99442005 0.419608 0.337255 0.231373 15.000000
-5.41908979 0.80723900 10.16489983 0.466667 0.466667 0.419608 15.000000
-5.62331009 0.99512899 10.06709957 0.47451 0.521569 0.541176 15.000000
-1.26653004 0.27289999 11.00450039 0.564706 0.494118 0.439216 15.000000
-2.85030007 -1.24483001 10.69139957 0.584314 0.568627 0.501961 15.000000
0.60000199 -0.98997003 10.18299961 0.364706 0.403922 0.576471 15.000000
-2.67475009 -1.23643005 10.72270012 0.568627 0.54902 0.501961 15.000000
-5.80732012 0.10485200 10.15200043 0.427451 0.384314 0.356863 15.000000
1.26566994 -1.07600999 10.20689964 0.521569 0.486275 0.376471 15.000000
-4.28824997 0.72849202 10.35569954 0.282353 0.247059 0.219608 15.000000
-2.55906010 -0.19453700 10.53719997 0.584314 0.611765 0.576471 15.000000
-2.77748990 -0.89827299 10.72570038 0.439216 0.529412 0.619608 15.000000
-4.67926979 2.06678009 10.01249981 0.34902 0.364706 0.411765 15.000000
-7.05613995 -0.71096098 8.67273998 0.356863 0.364706 0.392157 15.000000
-4.74497986 0.47337100 10.40719986 0.203922 0.27451 0.403922 15.000000
-5.52870989 -0.53321499 10.31429958 0.447059 0.439216 0.364706 15.000000
-3.63287997 -2.47702003 11.94690037 0.627451 0.639216 0.658824 15.000000
-6.64784002 -0.31095201 8.64161015 0.341176 0.329412 0.458824 15.000000
-5.18899012 -0.51163203 10.37370014 0.494118 0.494118 0.454902 15.000000
-6.50580978 -2.26759005 9.73103046 0.447059 0.611765 0.694118 15.000000
-5.74091005 -0.33987701 8.78979969 0.337255 0.294118 0.34902 15.000000
1.13161004 -2.01076007 11.02040005 0.403922 0.509804 0.584314 15.000000
-4.83889008 0.67156100 10.39410019 0.647059 0.666667 0.67451 15.000000
-2.85370994 -0.51913702 10.46660042 0.576471 0.556863 0.458824 15.000000
1.71820998 1.63162005 9.68982983 0.247059 0.247059 0.258824 15.000000
-4.35889006 1.86281002 10.12670040 0.266667 0.321569 0.329412 15.000000
1.23280001 -0.98777401 10.24989986 0.192157 0.309804 0.486275 15.000000
-6.88262987 -0.17550001 8.55681038 0.509804 0.603922 0.54902 15.000000
1.58693004 -0.65541703 10.02190018 0.364706 0.376471 0.411765 15.000000
-5.49545002 -0.34088799 10.35610008 0.482353 0.482353 0.403922 15.000000
-3.14350009 -0.51953900 10.41170025 0.603922 0.6 0.611765 15.000000
-2.99848008 -0.48422399 10.43719959 0.611765 0.619608 0.564706 15.000000
-5.76433992 1.10010004 8.50835037 0.376471 0.309804 0.282353 15.000000
-4.75845003 -0.36989400 10.45899963 0.537255 0.521569 0.47451 15.000000
-5.70745993 0.72881401 10.11089993 0.431373 0.447059 0.439216 15.000000
-1.86865997 -2.04071999 12.44149971 0.286275 0.364706 0.486275 15.000000
-1.14021003 1.42632997 10.76379967 0.34902 0.368627 0.376471 15.000000
-5.59956980 1.65901995 8.70304012 0.337255 0.34902 0.34902 15.000000
-6.03145981 -0.70932502 8.81099033 0.521569 0.537255 0.486275 15.000000
-1.74573004 -0.42059201 10.96440029 0.521569 0.521569 0.501961 15.000000
-3.92070007 -0.48978400 10.59160042 0.47451 0.431373 0.376471 15.000000
-2.91540003 1.59265995 10.20240021 0.486275 0.556863 0.666667 15.000000
0.79796302 -2.15142012 12.70660019 0.384314 0.337255 0.403922 15.000000
-3.26131010 -0.37295800 10.43780041 0.419608 0.392157 0.356863 15.000000
-4.67445993 -0.05999030 10.54619980 0.309804 0.376471 0.439216 15.000000
-2.26775002 -0.50107300 10.56750011 0.568627 0.541176 0.466667 15.000000
-2.15965009 -0.29325899 10.62279987 0.592157 0.564706 0.501961 15.000000
-5.97819996 -0.34949300 8.75677013 0.27451 0.27451 0.27451 15.000000
-2.92238998 0.96336401 10.28050041 0.439216 0.419608 0.376471 15.000000
-0.87900603 -0.39576700 11.11009979 0.529412 0.482353 0.427451 15.000000
1.35070002 -0.48592299 10.09200001 0.576471 0.584314 0.54902 15.000000
-4.09017992 -0.58356899 10.66969967 0.47451 0.537255 0.611765 15.000000
0.68203503 0.34600300 9.72793007 0.301961 0.266667 0.203922 15.000000
-5.15823984 0.03378450 10.35589981 0.521569 0.564706 0.564706 15.000000
-0.80630499 -0.39775601 11.12800026 0.482353 0.466667 0.384314 15.000000
1.35732996 0.92516398 9.80541992 0.34902 0.337255 0.239216 15.000000
-6.85184002 0.19422901 8.50780964 0.301961 0.321569 0.337255 15.000000
-0.01539620 1.55262005 10.97570038 0.266667 0.294118 0.301961 15.000000
1.45439994 -0.49076700 10.10449982 0.576471 0.564706 0.494118 15.000000
1.71563995 1.30844998 9.79411983 0.282353 0.239216 0.231373 15.000000
-0.86077303 -0.77056801 11.31389999 0.203922 0.321569 0.529412 15.000000
0.85900903 1.78637004 9.55797005 0.454902 0.47451 0.447059 15.000000
0.12378900 -2.28237009 12.54510021 0.309804 0.321569 0.403922 15.000000
0.72581601 1.57960999 9.56081963 0.364706 0.341176 0.239216 15.000000
-0.64405102 -0.25907099 11.20009995 0.521569 0.482353 0.458824 15.000000
-1.58984995 1.02245998 10.77719975 0.439216 0.47451 0.384314 15.000000
-5.70537996 -0.93583298 9.55342007 0.458824 0.486275 0.521569 15.000000
-0.34814200 -0.27280900 11.26379967 0.486275 0.486275 0.439216 15.000000
-3.05531001 0.51430100 10.31019974 0.521569 0.537255 0.521569 15.000000
-2.82052994 -0.32181099 10.50730038 0.466667 0.431373 0.411765 15.000000
0.88666803 -0.43141100 10.01039982 0.458824 0.384314 0.364706 15.000000
-0.43246400 2.01574993 10.80819988 0.384314 0.403922 0.431373 15.000000
-0.27497199 -0.37304801 11.21350002 0.439216 0.427451 0.337255 15.000000
0.62264502 -0.44801700 9.94801998 0.329412 0.309804 0.282353 15.000000
0.32880801 -0.89305103 10.74790001 0.282353 0.286275 0.247059 15.000000
1.66997004 0.37909400 9.98071003 0.447059 0.384314 0.4 15.000000
0.77917802 -0.43744600 9.98536015 0.329412 0.258824 0.247059 15.000000
-0.37315100 1.14074004 10.95470047 0.513725 0.509804 0.482353 15.000000
0.82031399 -0.34056401 9.97511959 0.419608 0.329412 0.337255 15.000000
-5.63161993 0.34923500 10.18739986 0.47451 0.482353 0.494118 15.000000
-1.05719995 0.03078270 11.06750011 0.329412 0.329412 0.329412 15.000000
0.12838501 -2.10033989 12.52779961 0.313725 0.337255 0.431373 15.000000
-3.45149994 1.88647997 9.92341042 0.431373 0.486275 0.568627 15.000000
-4.04504013 0.42904899 10.57579994 0.411765 0.501961 0.592157 15.000000
0.92711502 -0.31715199 9.98087978 0.576471 0.556863 0.486275 15.000000
-2.57181001 1.98057997 9.48348045 0.14902 0.239216 0.309804 15.000000
0.99954098 -0.25390601 9.99440956 0.584314 0.576471 0.509804 15.000000
-5.73379993 1.36838996 8.46203041 0.564706 0.568627 0.576471 15.000000
-4.93608999 0.04319220 10.38659954 0.454902 0.47451 0.47451 15.000000
-1.43230999 1.74301004 10.65359974 0.431373 0.431373 0.392157 15.000000
1.21240997 -0.43144900 10.05819988 0.568627 0.529412 0.439216 15.000000
-5.63861990 -0.63575703 10.39840031 0.14902 0.231373 0.356863 15.000000
-4.60731983 1.97312999 10.03829956 0.329412 0.364706 0.431373 15.000000
-6.02935982 -0.22233699 8.73503017 0.309804 0.282353 0.286275 15.000000
-6.53387022 0.04296000 8.59167957 0.486275 0.486275 0.466667 15.000000
-5.73297977 -0.05660000 8.72498035 0.384314 0.294118 0.356863 15.000000
-3.73260999 0.08031830 10.58199978 0.486275 0.501961 0.513725 15.000000
-6.75455999 -1.60655999 9.18929958 0.447059 0.556863 0.537255 15.000000
-0.18255700 -0.78443301 11.45219994 0.286275 0.321569 0.321569 15.000000
-4.74743986 -0.12487800 10.43990040 0.521569 0.501961 0.458824 15.000000
-2.50427008 -0.07737150 10.52410030 0.337255 0.286275 0.239216 15.000000
-1.65908003 -0.23048399 11.02130032 0.521569 0.482353 0.392157 15.000000
0.64557898 0.99629402 9.67099953 0.258824 0.258824 0.203922 15.000000
-2.45737004 0.12692000 10.49100018 0.564706 0.556863 0.537255 15.000000
-6.27213001 -0.85045999 8.72122955 0.584314 0.568627 0.529412 15.000000
-1.22868001 -0.16165100 11.06490040 0.529412 0.537255 0.466667 15.000000
1.14508998 0.77878898 9.78722954 0.384314 0.329412 0.266667 15.000000
0.73975402 -1.51040995 10.70100021 0.901961 0.901961 0.894118 15.000000
-3.21378994 1.43194997 10.05589962 0.321569 0.337255 0.329412 15.000000
-1.22868001 -0.16165100 11.06490040 0.529412 0.537255 0.466667 15.000000
-0.61908197 -0.19476700 11.19740009 0.27451 0.254902 0.219608 15.000000
-3.99476004 -2.20850992 12.14890003 0.447059 0.47451 0.564706 15.000000
-4.88006020 -0.72416902 10.57479954 0.521569 0.521569 0.521569 15.000000
-5.59412003 0.32118300 8.64719963 0.337255 0.321569 0.313725 15.000000
1.09820998 -1.55963004 10.78660011 0.121569 0.176471 0.286275 15.000000
-5.56112003 2.13386011 9.88562012 0.0705882 0.137255 0.192157 15.000000
-0.64301300 0.00747198 11.15639973 0.509804 0.494118 0.447059 15.000000
1.30833995 -1.74450004 10.87049961 0.301961 0.364706 0.494118 15.000000
-5.70566988 0.48531100 8.64422989 0.576471 0.556863 0.509804 15.000000
-1.41710997 -0.41560400 11.01729965 0.556863 0.501961 0.427451 15.000000
-1.64094996 -0.87726200 11.13749981 0.576471 0.576471 0.509804 15.000000
-2.99783993 -2.94133997 12.39770031 0.376471 0.427451 0.482353 15.000000
0.57695800 -0.01889220 9.85750961 0.6 0.576471 0.54902 15.000000
-0.13568600 1.00437999 10.99940014 0.411765 0.427451 0.447059 15.000000
-3.49025989 -0.70610899 10.53779984 0.384314 0.494118 0.647059 15.000000
1.36519003 -0.16773701 10.02460003 0.584314 0.564706 0.466667 15.000000
-5.61560011 1.05369997 8.67951012 0.47451 0.501961 0.509804 15.000000
1.79094994 -0.13586999 10.09519958 0.537255 0.541176 0.494118 15.000000
-2.17857003 0.03498640 10.56400013 0.529412 0.501961 0.466667 15.000000
-1.53522003 -0.04106160 11.00590038 0.521569 0.521569 0.439216 15.000000
0.91133499 -0.68232000 9.95903969 0.34902 0.392157 0.466667 15.000000
-1.40587997 0.22180700 10.97599983 0.513725 0.509804 0.431373 15.000000
0.57751101 0.14438300 9.81869030 0.603922 0.592157 0.564706 15.000000
-0.73304898 0.04900370 11.12979984 0.529412 0.509804 0.447059 15.000000
-5.02539015 0.20867300 10.34070015 0.34902 0.329412 0.356863 15.000000
0.93243802 0.15792900 9.88554001 0.584314 0.556863 0.501961 15.000000
-4.00980997 -1.03681004 10.81369972 0.74902 0.74902 0.741176 15.000000
-1.56517994 0.42968801 10.94709969 0.258824 0.337255 0.454902 15.000000
-4.99756002 0.93148601 10.20069981 0.27451 0.239216 0.231373 15.000000
-2.84694004 0.08049480 10.52760029 0.364706 0.482353 0.592157 15.000000
1.11030996 0.62744802 9.78450966 0.513725 0.494118 0.403922 15.000000
-1.19849002 0.46404299 10.96539974 0.494118 0.509804 0.458824 15.000000
1.51007998 0.09861790 10.00889969 0.411765 0.321569 0.321569 15.000000
-5.92517996 -0.84855199 8.79078007 0.592157 0.576471 0.556863 15.000000
-4.72068977 -0.48290899 10.47939968 0.486275 0.482353 0.419608 15.000000
0.87386203 -0.64199501 9.94734955 0.603922 0.568627 0.447059 15.000000
-6.75726986 -0.29877800 8.62047005 0.54902 0.576471 0.592157 15.000000
-5.64569998 0.01699490 10.27569962 0.513725 0.537255 0.541176 15.000000
-6.56836987 -0.63221103 8.66394043 0.584314 0.584314 0.537255 15.000000
-4.44566011 0.45346200 10.38840008 0.501961 0.501961 0.482353 15.000000
-2.68798995 0.89281601 10.23659992 0.329412 0.286275 0.219608 15.000000
-6.72079992 1.70843005 8.19369984 0.631373 0.576471 0.447059 15.000000
-3.37238002 0.29497701 10.29969978 0.564706 0.576471 0.54902 15.000000
0.98679203 -0.76632702 10.09169960 0.509804 0.584314 0.627451 15.000000
-1.66624999 1.79569995 10.69139957 0.309804 0.392157 0.513725 15.000000
-2.31117010 -1.66214001 11.99750042 0.447059 0.521569 0.631373 15.000000
-4.32783985 -1.17908001 11.17020035 0.231373 0.321569 0.439216 15.000000
-2.75187993 0.76471800 10.27379990 0.541176 0.537255 0.494118 15.000000
0.74816501 0.28250200 9.82682037 0.521569 0.494118 0.384314 15.000000
-6.41077995 -0.34049699 8.75175953 0.203922 0.294118 0.458824 15.000000
-1.36145997 1.87092996 10.65629959 0.219608 0.227451 0.239216 15.000000
-1.46972001 0.56631202 10.88860035 0.486275 0.47451 0.439216 15.000000
0.93130398 0.31893399 9.85044956 0.541176 0.54902 0.47451 15.000000
-5.70948982 0.60770500 10.07900047 0.247059 0.309804 0.337255 15.000000
-5.97035980 1.09281003 8.46788979 0.321569 0.258824 0.239216 15.000000
-2.92974997 -0.48476300 10.45170021 0.709804 0.694118 0.631373 15.000000
-6.18945980 0.54644603 8.52202034 0.576471 0.521569 0.458824 15.000000
-5.14495993 0.73151600 10.20240021 0.447059 0.447059 0.392157 15.000000
0.99375498 0.22087499 9.87170029 0.584314 0.592157 0.529412 15.000000
-3.06755996 -0.78335500 10.60070038 0.2 0.258824 0.321569 15.000000
1.03692997 -0.97244400 10.15260029 0.521569 0.537255 0.564706 15.000000
-4.83324003 0.65033799 10.24899960 0.458824 0.47451 0.47451 15.000000
-2.21131992 -0.24161699 10.61250019 0.611765 0.619608 0.619608 15.000000
-2.94309998 -1.27500999 10.67199993 0.564706 0.584314 0.54902 15.000000
-6.08549976 -0.75301099 8.81435966 0.501961 0.466667 0.458824 15.000000
-4.08888006 0.67022800 10.37549973 0.458824 0.482353 0.482353 15.000000
0.92893100 0.97065097 9.72408009 0.501961 0.494118 0.439216 15.000000
-1.78823996 0.73007703 10.79039955 0.419608 0.419608 0.419608 15.000000
-5.60126019 0.58874899 8.84300995 0.482353 0.521569 0.537255 15.000000
-5.84158993 1.02184999 8.42994022 0.47451 0.466667 0.392157 15.000000
1.76651001 0.91418898 9.87563038 0.47451 0.454902 0.4 15.000000
0.71745098 1.66206002 9.56095982 0.54902 0.466667 0.392157 15.000000
2.51244998 0.64427900 9.72799015 0.87451 1 1 15.000000
-0.76234198 0.59946603 11.00349998 0.219608 0.258824 0.282353 15.000000
-6.70428991 -1.70844996 9.27984047 0.658824 0.764706 0.811765 15.000000
-3.62795997 -0.06961980 10.65590000 0.219608 0.203922 0.156863 15.000000
0.10839800 -1.95745003 12.48890018 0.576471 0.611765 0.67451 15.000000
-1.08120000 -0.40136701 11.07750034 0.509804 0.482353 0.411765 15.000000
-5.66099024 -0.43739799 8.83767033 0.682353 0.666667 0.647059 15.000000
0.19145200 -0.06206510 11.29990005 0.529412 0.576471 0.576471 15.000000
-4.07266998 -0.55352402 10.56490040 0.321569 0.427451 0.564706 15.000000
-2.55238008 -0.72440499 10.69250011 0.529412 0.592157 0.584314 15.000000
-6.96620989 1.69927001 8.12565994 0.6 0.537255 0.439216 15.000000
-5.68846989 0.20519100 9.38492012 0.576471 0.603922 0.584314 15.000000
-3.59106994 0.52869397 10.52060032 0.419608 0.4 0.403922 15.000000
0.09430390 0.66069102 11.15620041 0.419608 0.466667 0.486275 15.000000
-5.33894014 -0.32796401 10.38819981 0.494118 0.466667 0.376471 15.000000
0.06824100 0.83496898 11.10509968 0.247059 0.227451 0.203922 15.000000
-1.20870996 0.08783490 11.04419994 0.376471 0.301961 0.282353 15.000000
-1.36938000 -0.03959300 11.03629971 0.611765 0.584314 0.541176 15.000000
-5.15707016 0.19281000 10.31919956 0.509804 0.501961 0.431373 15.000000
-1.16971004 1.19865000 10.82289982 0.466667 0.458824 0.447059 15.000000
0.92003500 -0.44590899 9.99761009 0.54902 0.564706 0.509804 15.000000
0.97243601 0.69212502 9.75432968 0.494118 0.494118 0.431373 15.000000
1.17040002 -1.22373998 10.18680000 0.431373 0.4 0.384314 15.000000
-5.64801979 0.79411602 10.08150005 0.266667 0.294118 0.294118 15.000000
0.38539600 -0.19112600 10.28230000 0.54902 0.537255 0.501961 15.000000
-5.65577984 0.84079301 10.07129955 0.364706 0.392157 0.341176 15.000000
-5.68892002 0.91473001 10.08100033 0.419608 0.419608 0.376471 15.000000
-4.38617992 -0.62643099 10.65410042 0.231373 0.321569 0.47451 15.000000
-1.19389999 1.60064995 10.73320007 0.419608 0.431373 0.419608 15.000000
-0.17513700 0.95438600 11.04419994 0.392157 0.411765 0.392157 15.000000
-4.43517017 0.95153999 10.29399967 0.494118 0.513725 0.509804 15.000000
1.76301003 1.13408995 9.84885025 0.301961 0.286275 0.247059 15.000000
0.38347301 0.57880801 9.99781990 0.521569 0.556863 0.564706 15.000000
-2.41802001 0.77509099 10.26889992 0.54902 0.537255 0.486275 15.000000
-5.71740007 1.74821997 9.91131020 0.211765 0.247059 0.282353 15.000000
0.88791901 0.73566997 9.73596001 0.54902 0.541176 0.466667 15.000000
-2.36946988 -0.26399201 10.56620026 0.47451 0.439216 0.419608 15.000000
-6.62697983 -2.31375003 11.19859982 0.619608 0.686275 0.694118 15.000000
1.47478998 0.99082297 9.80782032 0.337255 0.258824 0.254902 15.000000
-1.18485999 0.84347999 10.88759995 0.501961 0.47451 0.427451 15.000000
1.10828996 -1.88612998 10.93540001 0.137255 0.219608 0.329412 15.000000
1.80936003 0.83570802 9.89871979 0.466667 0.466667 0.392157 15.000000
-1.67132998 0.14006101 11.01980019 0.403922 0.521569 0.627451 15.000000
0.60893703 0.17718600 9.82516956 0.301961 0.301961 0.266667 15.000000
0.25696000 -0.20614000 11.01210022 0.431373 0.458824 0.419608 15.000000
0.10215500 1.16211998 11.04220009 0.411765 0.411765 0.439216 15.000000
1.84669006 -0.56387401 10.13829994 0.356863 0.34902 0.294118 15.000000
0.57745802 1.12223995 9.63148022 0.501961 0.501961 0.482353 15.000000
-4.17168999 1.35023999 10.24549961 0.458824 0.47451 0.501961 15.000000
-4.99841976 0.22174899 10.34619999 0.509804 0.529412 0.529412 15.000000
0.56255800 0.44854301 9.67148972 0.682353 0.721569 0.764706 15.000000
-6.61076021 -0.18630099 8.62100983 0.376471 0.356863 0.466667 15.000000
0.86295801 1.05772996 9.70347023 0.313725 0.286275 0.247059 15.000000
1.37566996 1.11894000 9.77145004 0.47451 0.47451 0.411765 15.000000
-2.76529002 -0.20638099 10.50000000 0.619608 0.627451 0.592157 15.000000
0.89481199 1.25442004 9.67294025 0.337255 0.313725 0.301961 15.000000
-6.50626993 1.49535000 8.28265953 0.576471 0.556863 0.466667 15.000000
-0.47530800 0.62396502 11.07110023 0.454902 0.486275 0.392157 15.000000
-4.91091013 -0.93346602 10.62860012 0.521569 0.521569 0.521569 15.000000
1.71481001 1.57037997 9.73876953 0.309804 0.258824 0.254902 15.000000
-2.60784006 -1.27065003 10.76599979 0.631373 0.647059 0.592157 15.000000
-5.25068998 -0.52821797 10.36890030 0.603922 0.576471 0.537255 15.000000
-0.05947990 2.45333004 10.78190041 0.0941176 0.176471 0.227451 15.000000
-4.42993021 1.59667003 10.16180038 0.403922 0.384314 0.376471 15.000000
-5.11985016 0.19655500 10.33740044 0.294118 0.266667 0.239216 15.000000
-2.07712007 1.74267006 10.21819973 0.419608 0.466667 0.47451 15.000000
-2.04641008 1.79431999 10.21479988 0.309804 0.321569 0.329412 15.000000
-3.00455999 -2.99426007 12.51939964 0.329412 0.309804 0.431373 15.000000
-3.68056011 -0.08017660 10.63029957 0.494118 0.494118 0.509804 15.000000
-5.77242994 0.78902602 8.56702042 0.384314 0.34902 0.309804 15.000000
0.10388500 -2.10760999 12.51650047 0.486275 0.509804 0.611765 15.000000
-5.59286022 1.80869997 8.36581039 0.466667 0.494118 0.513725 15.000000
-1.40486002 1.03571999 10.82460022 0.466667 0.509804 0.529412 15.000000
-4.04220009 0.27129501 10.60509968 0.4 0.513725 0.619608 15.000000
0.57660502 1.60804999 9.53779030 0.439216 0.431373 0.403922 15.000000
-0.92933202 1.28468001 10.92049980 0.392157 0.537255 0.619608 15.000000
-5.71530008 -0.33104700 9.61876011 0.313725 0.309804 0.34902 15.000000
-4.87492990 1.02741003 10.17969990 0.458824 0.458824 0.431373 15.000000
1.30032003 -0.70269299 10.04640007 0.411765 0.509804 0.619608 15.000000
-3.05374002 -1.20782995 10.68420029 1 0.992157 0.866667 15.000000
1.21882999 1.93753004 9.54493046 0.384314 0.403922 0.392157 15.000000
-5.91872978 0.72568899 8.56387043 0.384314 0.329412 0.286275 15.000000
1.51779997 1.72909999 9.66691971 0.247059 0.203922 0.211765 15.000000
0.09220690 0.03082830 11.28699970 0.392157 0.419608 0.431373 15.000000
-2.88835001 1.71812999 10.19130039 0.529412 0.541176 0.54902 15.000000
-2.58942008 -0.99504298 10.70450020 0.466667 0.431373 0.439216 15.000000
1.55684996 1.36038005 9.75813007 0.231373 0.239216 0.156863 15.000000
-6.54160976 1.58686996 8.25395012 0.427451 0.356863 0.258824 15.000000
-5.70911980 1.79333997 9.90272045 0.341176 0.376471 0.384314 15.000000
-6.32617998 -1.41709995 8.91849995 0.576471 0.564706 0.494118 15.000000
-6.01090002 1.03925002 8.47941017 0.576471 0.592157 0.521569 15.000000
-0.43201301 0.41119200 11.11400032 0.509804 0.521569 0.509804 15.000000
-6.22537994 1.00681996 8.49067020 0.14902 0.156863 0.227451 15.000000
-4.70035982 1.96845996 10.02840042 0.27451 0.321569 0.329412 15.000000
-0.03160120 2.04376006 10.83069992 0.203922 0.203922 0.192157 15.000000
-3.07052994 1.78024006 10.02620029 0.254902 0.282353 0.239216 15.000000
-0.45579499 -0.25424001 11.22649956 0.501961 0.486275 0.454902 15.000000
-6.34195995 1.97189999 8.28201008 0.109804 0.121569 0.176471 15.000000
-4.72854996 0.87142599 10.32890034 0.47451 0.513725 0.509804 15.000000
-5.17336988 -2.13129997 11.87530041 0.184314 0.27451 0.364706 15.000000
-2.30757999 -2.02796006 12.09560013 0.501961 0.529412 0.529412 15.000000
1.49732995 -0.21288800 10.06669998 0.34902 0.266667 0.258824 15.000000
-4.17792988 1.98725998 10.10490036 0.439216 0.458824 0.47451 15.000000
1.76880002 1.70586002 9.71656036 0.419608 0.427451 0.419608 15.000000
-5.94368982 -0.53937101 8.80469036 0.419608 0.403922 0.419608 15.000000
-1.75856996 -2.14222002 12.52709961 0.231373 0.258824 0.337255 15.000000
-2.91097999 0.65902901 10.14120007 0.419608 0.403922 0.419608 15.000000
-6.88533020 0.64347500 8.39747047 0.521569 0.521569 0.4 15.000000
-3.67350006 -1.84191000 11.81550026 0.521569 0.537255 0.584314 15.000000
0.31776100 1.90603995 10.31719971 0.34902 0.411765 0.47451 15.000000
-1.32287002 -1.99856997 12.50570011 0.164706 0.227451 0.321569 15.000000
0.06172520 0.99374700 11.05669975 0.392157 0.384314 0.384314 15.000000
-3.67687011 0.77151901 10.44799995 0.411765 0.419608 0.392157 15.000000
-5.73441982 -0.70475399 8.87129974 0.592157 0.576471 0.556863 15.000000
-3.76949000 0.43409300 10.52830029 0.513725 0.521569 0.537255 15.000000
-0.43259400 0.57149398 11.08460045 0.592157 0.603922 0.568627 15.000000
-5.74673986 -0.63199300 8.84420967 0.376471 0.337255 0.368627 15.000000
-5.06473017 -0.52431899 10.38650036 0.494118 0.47451 0.458824 15.000000
-4.65154982 -0.51560098 10.44869995 0.509804 0.494118 0.458824 15.000000
-5.70016003 0.77986002 8.58557987 0.603922 0.603922 0.611765 15.000000
-3.86707997 -2.12362003 12.10449982 0.403922 0.419608 0.494118 15.000000
-4.58343983 -0.51184303 10.47319984 0.537255 0.521569 0.482353 15.000000
-5.17552996 0.59579802 10.23050022 0.501961 0.537255 0.564706 15.000000
-3.29828000 -0.53025103 10.38790035 0.6 0.6 0.537255 15.000000
-6.12072992 0.24476700 8.60544014 0.564706 0.556863 0.521569 15.000000
-3.09317994 -0.68817103 10.56229973 0.603922 0.619608 0.611765 15.000000
-2.94119000 -0.52497399 10.44709969 0.584314 0.54902 0.47451 15.000000
-2.48779988 -0.51145202 10.52639961 0.584314 0.564706 0.486275 15.000000
-4.41871023 0.05489930 10.47220039 0.564706 0.584314 0.592157 15.000000
-3.06570005 0.02770790 10.40769958 0.611765 0.6 0.564706 15.000000
-0.66551602 -0.63734198 11.32600021 0.156863 0.203922 0.294118 15.000000
0.90803802 -0.50728399 10.01399994 0.592157 0.54902 0.466667 15.000000
-5.85382986 -0.64538002 8.83168983 0.411765 0.4 0.411765 15.000000
-6.03127003 -0.16920000 8.72222996 0.321569 0.301961 0.286275 15.000000
-2.69307995 1.26697004 10.30860043 0.266667 0.341176 0.447059 15.000000
-4.97688007 -0.38769799 10.46049976 0.521569 0.513725 0.486275 15.000000
-2.55651999 1.01655996 10.26920033 0.521569 0.521569 0.501961 15.000000
0.39476001 -0.69365400 10.51500034 0.313725 0.301961 0.392157 15.000000
-3.63776994 -1.78705001 11.80239964 0.247059 0.286275 0.384314 15.000000
-1.76019001 0.42229199 10.90999985 0.203922 0.294118 0.364706 15.000000
0.44377801 -0.79118401 10.49199963 0.309804 0.321569 0.368627 15.000000
1.77021003 1.17851996 9.81696987 0.309804 0.286275 0.227451 15.000000
-3.05769992 -0.39949301 10.51060009 0.556863 0.529412 0.454902 15.000000
-6.32790995 -0.46052501 8.70627022 0.411765 0.411765 0.411765 15.000000
-3.54961991 -0.46000901 10.41300011 0.294118 0.301961 0.294118 15.000000
-5.66648006 -0.73869699 10.44219971 0.164706 0.231373 0.337255 15.000000
-2.41904998 -0.50701302 10.54599953 0.568627 0.556863 0.458824 15.000000
-6.86996984 0.57117200 8.42208004 0.4 0.376471 0.403922 15.000000
-2.41796994 -0.50639403 10.54329967 0.568627 0.556863 0.458824 15.000000
-0.93481100 0.16952200 11.14280033 0.384314 0.501961 0.631373 15.000000
-6.59595013 -2.05563998 9.56649017 0.521569 0.592157 0.592157 15.000000
-4.48763990 -0.70219100 10.64070034 0.486275 0.54902 0.568627 15.000000
-2.37555003 -0.30263200 10.59440041 0.564706 0.564706 0.521569 15.000000
-2.12181997 -0.50169802 10.59519958 0.54902 0.521569 0.419608 15.000000
-2.14657998 -0.38962799 10.21280003 0.541176 0.509804 0.439216 15.000000
-2.73832989 -1.27549005 10.70479965 0.376471 0.392157 0.427451 15.000000
-6.98904991 -0.72479600 8.66388035 0.556863 0.564706 0.509804 15.000000
-6.60270977 0.13529100 8.55031013 0.282353 0.286275 0.392157 15.000000
-5.19490004 0.60574001 10.23130035 0.537255 0.541176 0.501961 15.000000
-7.55562019 2.14633012 8.71607971 0.337255 0.309804 0.176471 15.000000
-2.14657998 -0.38962799 10.21280003 0.541176 0.509804 0.439216 15.000000
-4.38902998 1.69362998 10.15040016 0.419608 0.447059 0.486275 15.000000
-1.60397005 -0.42101499 10.98579979 0.501961 0.494118 0.419608 15.000000
