# 3D point list with one line of data per point:
#   POINT3D_ID, X, Y, Z, R, G, B, ERROR, TRACK[] as (IMAGE_ID, POINT2D_IDX)
# Number of points: 614, mean track length: 4.78801
4840 -5.06484 -0.086688 10.3591 86 87 81 0.38092 2 8010 3 8908 1 8611 6 7902 4 9655
4473 -1.90598 -1.06808 11.1769 146 133 114 0.335197 2 5239 3 5969 1 5807
5866 -6.01679 -0.254852 10.1569 153 158 151 0.819323 8 946 6 874 7 1279
4475 -3.19462 -0.984281 10.5965 147 140 130 0.36704 2 5250 3 5983 1 5811 4 6664
5359 -0.538268 -0.116817 11.241 117 95 82 0.745565 5 3857 1 4157 6 3657
4476 1.11782 -1.01706 10.2578 107 100 87 0.419681 5 5395 3 5984 1 3791 6 5235 7 6872 10 8508
4844 -1.01607 0.0320335 11.1379 66 68 62 0.456777 2 8045 3 8944 1 7525
4477 -4.84415 -0.926813 10.6274 50 64 59 0.170366 2 5266 3 5999 1 5813
5353 -4.99686 -0.21929 10.3919 139 132 116 0.313195 5 950 1 4075 4 4654
4478 -2.0034 -0.844549 11.1442 93 90 85 0.233939 2 5292 8 7481 3 6021 1 5856
4625 -6.20101 1.22808 8.34578 81 69 55 0.126599 2 6137 3 6874 4 9000
4480 -1.16598 -0.826014 11.3354 97 87 75 0.436209 2 5299 3 6028 1 5870
5142 -3.26478 -0.475739 10.4266 157 134 107 0.544305 3 769 1 895 4 1039
4481 -0.327867 -0.834738 11.4739 126 118 100 0.287792 2 5298 3 6029 1 5875 4 6749
5651 0.16842 -0.528531 10.3501 155 122 99 0.625088 3 8809 1 8528 4 9620
4482 -5.20439 -0.743913 10.4913 56 70 87 0.891662 2 6700 3 6031 6 5389
4629 -6.15987 1.33278 8.31483 94 71 65 0.531934 2 6177 3 6909 1 6766
4484 -0.975474 -0.74606 11.3122 151 145 133 0.485878 2 5319 3 6038 1 3885
4485 0.176679 -0.703835 10.5502 56 55 80 1.42954 2 5323 3 6050 1 7300 4 9575
4486 -1.40268 -0.675774 11.3369 16 38 54 2.13835 2 3504 3 6057 1 7302 4 9557
5140 -5.12727 -0.472449 10.3792 136 124 101 0.358973 3 766 1 831 4 4505
4487 1.72094 -0.678821 10.305 96 102 128 0.750646 2 6712 3 6060 4 8381
4633 -5.19064 1.76099 9.95944 57 52 58 0.10256 2 6233 3 6968 1 6853
4488 1.4169 -0.668579 10.1496 91 94 103 0.616248 8 7467 3 6065 7 6910
5150 -4.98365 -0.385308 10.3707 161 160 146 0.592607 3 841 1 954 4 997
4489 0.361066 -0.620119 9.95829 114 93 68 0.270542 2 5343 3 6080 1 5924 6 5363
5659 -1.82506 0.177669 11.0078 102 113 134 0.339413 5 8165 1 8700 6 7956
4490 0.433098 -0.618514 9.96993 118 94 71 0.413309 2 5344 3 6081 1 5925
7192 -3.34023 1.6245 9.96279 144 158 166 0.922852 5 9103 7 9686 10 10392 9 10591 11 11673
4491 0.503649 -0.61568 9.98501 111 86 60 0.131538 2 5347 3 6084 1 5927
4637 -1.68613 2.05735 10.5858 86 90 102 0.382263 5 7607 3 7011 1 6905
4492 -6.80422 -0.517681 8.56621 98 81 94 0.656839 2 5371 3 6094 7 5887 10 6562 9 6665
7186 -2.42435 0.394475 10.4651 157 154 140 0.897253 8 10119 7 9541 10 10220 9 10411 11 11979
4493 0.601132 -0.569369 10.0454 165 137 93 1.19357 2 5366 8 7498 3 6098 7 6974 9 8772
5148 -3.39267 -0.436065 10.4105 144 137 126 0.222714 3 807 1 941 4 1066
4495 0.91724 -0.560023 10.0939 157 137 100 0.731537 2 5368 5 6855 3 6108 6 5384 6 6653 7 6970
4705 -0.00403042 -0.000272884 11.2243 114 125 121 0.637085 2 5542 3 7760 1 8660 4 9748
4496 0.916743 -0.559811 10.0847 157 137 100 0.53815 2 5369 3 6109 6 5385
4497 -6.18471 -0.453756 8.67592 83 68 69 0.337836 5 5594 3 6120 1 7305 6 5455
5731 -2.56259 -0.141881 10.5306 165 158 149 0.413909 3 10551 1 10248 4 11519
4498 -5.59673 -0.468296 10.2837 131 112 88 0.930638 5 3756 3 6124 1 7319
4499 1.1395 -0.49604 10.1334 157 149 126 0.311461 2 5375 3 6127 1 4002
4709 -0.96592 0.0407414 11.1409 141 136 115 0.503368 2 6950 8 7717 3 7781 6 6875 7 7176 1 6142 10 8785 9 8932 11 9678
4500 -6.66491 -0.426421 8.60159 109 102 82 0.459842 2 5387 3 6131 1 5917
7783 -6.48814 0.91565 8.37948 116 132 147 0.475841 7 9603 10 9819
4502 -3.45947 -0.417159 10.4184 150 143 124 0.53899 2 5397 3 6142 1 5981 6 5449 4 6821
5220 0.952065 0.817868 9.8245 111 98 82 0.488337 3 1580 1 1882 4 2253
4503 -3.45947 -0.416846 10.4217 150 143 124 0.539164 2 5398 8 6184 3 6143 1 5982 6 5450 7 7086 10 7683 4 6822 11 8130
4713 -4.43556 0.132717 10.4337 143 135 118 0.275826 2 6982 3 7811 1 7550 8 6345 6 5621 6 6935 4 8529
4504 -6.21879 -0.39748 8.66095 84 76 66 0.198245 2 5404 3 6144 1 5934 6 3611
5230 -2.45382 1.00028 10.3015 145 142 123 0.629321 3 1709 1 1996 4 2288
4505 -6.21879 -0.39748 8.66095 84 76 66 0.198245 2 5405 3 6145 1 5935 6 3612
5739 1.16911 2.10352 9.61257 102 105 120 0.393635 1 10406 6 9601
4506 -6.22221 -0.343261 8.66043 80 74 72 0.453179 2 5429 3 6173 1 5968 4 8304
7272 -6.2802 -1.95383 11.3642 130 139 154 0.953933 7 313 10 358 11 864
4507 -6.2203 -0.342661 8.65065 80 74 72 0.844596 2 5430 5 3809 3 6174 1 5969 7 4049 10 4625 9 4544 4 8305 11 2201
4717 -3.85586 0.253477 10.5245 65 62 58 0.421578 2 7022 3 7861 1 7597 4 8596
4508 -4.10149 -0.297621 10.5725 136 124 108 0.373726 5 5633 3 6189 4 8377 1 7398
7266 -0.863681 -2.01753 12.6779 117 131 150 1.11801 7 123 10 109 9 354
4509 1.5393 -0.328314 10.1927 102 86 71 0.422048 2 5434 3 6191 6 6723 4 6978
5228 0.698594 0.940114 9.78304 144 134 124 0.299601 2 4198 1 1984 4 2340
4511 -1.2491 -0.243034 11.0992 134 124 102 0.457097 2 5464 3 6212 1 6045
4657 -3.8476 -2.07743 11.8143 146 148 149 0.298356 2 6579 3 7402 1 7155 4 8139
4512 0.158045 -0.247555 10.3479 108 103 91 1.0337 2 3656 5 5639 3 6214 1 4107 4 4797
5174 -4.57698 0.282103 10.3882 112 98 98 0.618645 3 1189 1 1409 4 1606
4816 -0.364603 -2.16127 13.3109 245 233 220 0.675214 2 7763 3 8661 1 8363
4513 -1.14214 -0.210826 11.1269 146 129 99 0.843726 2 5474 3 6220 4 6963
7389 -6.45698 0.701428 8.37347 118 114 119 0.178451 7 2062 10 2293 9 2199
5683 -3.71375 -0.713176 10.4607 114 147 190 1.17783 2 9232 3 9663 1 9348
4514 -6.63306 -0.21225 8.66785 68 95 124 0.553337 2 5480 5 3864 3 6221
5335 -1.44231 -0.776789 11.4203 83 93 105 0.236581 3 3939 1 3867 4 4515
4661 -6.52124 -1.42719 8.80974 149 143 129 0.391122 2 6608 3 7435 1 7166 6 5216 8 5952 7 5626
4516 -6.89677 -0.206178 8.46742 138 140 116 1.02622 2 5484 3 6225 1 6013
4820 -6.65879 -0.971002 8.679 121 140 147 0.139497 2 7802 3 8701 1 8393
4517 -4.60078 -0.10333 10.451 97 82 80 0.220817 2 5511 3 6256 6 5549
7735 0.613851 0.688172 9.80565 116 99 92 0.618598 7 7407 10 8984 9 9096
5329 -3.38619 -0.855074 10.6925 79 96 119 0.280841 2 3445 1 3813 4 4383
4518 -7.07897 -0.129909 8.4402 144 154 127 0.499784 5 3907 3 6257 1 6044
7894 0.621155 0.623731 9.81314 74 71 60 0.696855 10 1810 9 1718 11 1907
5172 -0.864505 0.134794 11.1494 154 149 138 0.348631 5 1073 1 1336 10 4614 7 1337 4 1626 11 5561
4519 -2.82999 -0.0860193 10.5066 63 61 49 0.533505 2 5519 3 6264 1 7480 4 9688
7387 -1.83866 1.02687 10.7452 86 84 85 0.428315 7 2188 10 2288 9 2193 11 6258
4665 -5.42614 -1.28102 11.0023 55 64 81 0.210106 2 6636 3 7464 1 7200
4520 -3.46598 -0.0644145 10.3571 153 146 128 0.623766 2 5525 3 6271 1 6094
5182 -3.84149 0.413943 10.4908 63 52 48 0.428021 3 1267 1 1501 4 1726
4824 1.32784 -0.631149 10.1126 160 147 115 0.75667 8 9517 3 8767 6 8578
4521 -1.89816 -0.0538529 10.9494 94 83 76 0.20544 2 5524 3 6275 1 6105 4 6998
5691 -3.52541 0.115792 10.3028 131 124 114 0.209051 3 9776 1 9462 4 10559
4522 -3.02819 -0.0439499 10.5135 64 73 102 0.482443 2 3749 5 5696 3 6277 6 5557
7224 -6.26157 0.709732 8.40435 173 170 164 1.22653 8 10728 7 10171 10 10850
5850 0.807479 -0.393106 10.0148 142 133 118 0.671249 8 670 6 692 7 3845
5343 -0.614436 -0.540782 11.3557 159 165 166 0.249061 3 4014 1 3974 4 4645
4669 -7.27938 -0.988646 8.58021 255 253 253 1.38108 5 6800 3 7487 10 7638 9 1220
7218 -2.8848 -0.029246 10.4856 88 112 150 0.848322 8 10638 7 10090 10 10781
4828 -3.22487 -0.434991 10.4407 153 140 109 0.325686 2 8774 3 8817 1 9375 4 10475
4525 -5.21736 -0.0236652 10.3178 91 79 81 0.341789 2 5544 3 6287 4 8469
5180 -1.1676 0.391956 11.0962 120 140 169 0.828267 3 1232 1 1490
4527 -7.23218 -0.04138 8.38836 104 110 100 0.288833 2 5552 3 6292 1 7464
4609 -0.698913 1.36258 10.9357 80 71 69 0.863019 2 6055 5 6155 3 6785 6 6006 9 8329 4 7501
4528 -1.33718 0.0272247 11.0687 150 139 122 0.317154 2 5554 3 6295 1 6135 4 7038
5126 0.750882 -1.05906 10.1973 153 126 164 0.320173 3 3833 1 518 4 797
4529 -4.16975 0.0618798 10.5954 53 72 102 0.265663 5 5742 3 6318 1 6132
5635 -0.854407 1.92511 10.7766 113 117 118 0.797694 8 9292 1 8131 7 8738 10 9940
4530 -4.16975 0.0618798 10.5954 53 72 102 0.265663 5 5743 3 6319 1 6133
4531 -6.11169 0.00977388 8.6047 146 139 120 1.35677 2 5589 3 6320 1 6111 4 8457
4613 -7.01012 1.08599 8.2097 90 73 81 0.546305 2 6072 3 6810 1 7957
4532 -0.132483 0.120007 11.2862 85 66 68 0.314156 5 5744 3 6335 6 5578
7687 -2.54223 -0.185492 10.541 163 163 158 0.325121 8 6249 10 7732 11 9716
4534 -2.49811 0.110025 10.5082 153 147 129 0.586538 8 6326 3 6339 1 6168 7 5993 10 6625 11 5779
5124 0.729822 -1.11175 10.2805 129 99 71 0.214661 3 389 1 498 4 767
4535 -4.97589 0.133739 10.4213 46 71 101 0.228777 2 5610 3 6343 4 8513
4617 -7.069 1.12916 8.18595 157 147 114 1.02471 2 6096 5 4482 3 6825 1 6676 6 4329 7 2451 4 8950
4536 -4.90896 0.130903 10.4277 52 77 100 0.176273 2 5609 5 5763 3 6345 1 6160
5134 -2.36947 -0.754086 10.8145 53 73 97 0.93947 5 3664 1 648 6 5360
4537 -7.11114 0.0723508 8.3822 142 149 131 0.199703 2 5612 3 6348 10 4776
5643 0.471191 -1.87652 12.6217 21 46 66 0.301433 3 8674 1 8379 4 9457
4538 1.44462 0.15945 10.0719 128 112 91 0.979163 5 5764 3 6361 1 4287 6 5597 10 9568
7176 -2.51246 1.36215 10.2426 120 120 108 0.321709 6 8273 8 9779 7 9243
4539 -5.3436 0.188045 10.256 93 85 81 0.440545 5 3997 3 6362 6 3835 4 7017
4621 -5.35302 1.4291 10.0005 64 54 52 0.294378 2 6122 5 6216 3 6856 1 6710 6 4377
4540 -0.273258 0.226482 11.2493 87 90 93 0.959299 2 5629 3 6369 1 7593
7170 -1.08286 0.510611 11.0843 124 148 172 0.924953 8 7861 7 9088 10 9685
4541 -2.45971 0.205842 10.4843 121 108 103 0.665491 5 5781 3 6370 6 5641
4542 -7.08267 0.143736 8.3881 133 141 118 0.299464 2 5642 3 6375 7 4248
5132 -2.07649 -0.889181 11.1111 97 84 75 0.182049 2 504 1 605 4 4410
4543 -6.7998 0.153456 8.43678 146 153 146 0.291768 2 5647 5 4013 3 6378 6 3858
5926 -0.18001 1.06594 11.0674 68 72 69 0.62502 8 1687 6 1502 7 4619
4689 0.0264374 -0.215299 11.0406 112 117 107 0.894322 2 6864 3 7697 1 8601 4 9695
5715 0.543443 -0.0963056 9.94573 181 178 167 1.38021 3 10215 1 9933 6 9401 5 9624 7 10071 4 10557
4546 -2.39643 0.259556 10.4971 125 115 103 0.554504 5 5790 3 6392 1 6218 4 4968
4693 0.21682 -0.179883 10.0681 118 105 103 0.489675 2 6880 3 7712 1 8614
4549 -1.33581 0.349733 11.0117 148 137 115 0.67266 2 5681 3 6425 1 6245
7767 0.365186 -0.341461 9.93687 160 153 145 0.791492 7 8928 10 9478 9 10281
6948 -2.08493 2.16604 9.42609 51 62 73 0.413238 8 5268 7 5323 10 7277 9 7354 11 8981
4550 -5.33851 0.324179 10.2252 73 61 61 0.724093 2 5679 5 5817 3 6427 1 6234 6 5700 4 7072
5925 -6.20915 0.798332 8.43426 61 64 62 0.270304 2 4182 6 1500 4 5297
5204 1.41677 0.645257 9.96801 125 110 105 0.284115 3 1462 1 1724 4 2126
4551 -1.39843 0.381248 10.9888 150 139 119 0.414232 2 5693 3 6437 1 6265 4 7147
5934 0.725042 1.16278 9.73246 97 93 88 0.38137 8 1848 6 1629 7 4717 10 5195 9 7030 11 6235
4697 -3.00922 -0.134592 10.4533 146 145 126 0.655958 8 7677 3 7721 1 7450 11 9762
4552 -4.59834 0.36601 10.3608 85 76 77 0.212051 2 5696 3 6445 1 6248 6 5711 10 6747
5214 -6.92843 0.710203 8.29213 108 89 83 0.220827 3 1616 1 1858 4 5207
4553 -6.93239 0.289061 8.36404 94 95 100 1.53328 8 4495 3 6451 6 3923
6952 -1.98514 2.20206 9.29285 59 72 89 0.333722 6 2342 7 5383 10 7303 9 7381
5723 -7.08175 1.31505 8.13691 168 158 139 0.812512 3 9979 5 9087 1 10076 4 11633
4554 0.685283 0.369723 9.87657 153 151 128 0.260919 5 5827 3 6453 1 6292
7977 0.507872 0.93726 9.7437 68 65 58 0.617589 10 2181 9 4926 11 6069
7256 -5.33501 0.529657 10.1854 73 70 75 0.486429 8 4585 5 5892 3 6509 6 5768 5 7213 1 7689 7 6166 10 6806 9 6908 4 8674 11 6232
4555 0.116622 0.418291 10.4745 118 124 114 0.281124 2 5725 3 6464 1 7667
7970 1.15446 0.918967 9.85679 92 86 67 0.713731 7 2090 9 4869 11 5965
4701 -3.85592 -0.0781971 10.6063 61 54 44 0.521052 2 6917 3 7742 1 7472
4556 -5.78319 0.314248 8.55647 78 72 74 0.54726 2 5722 3 6465 1 4350
7250 -0.662411 0.401936 11.1275 135 133 122 0.440526 8 7825 5 7168 6 6982 2 7064 3 7902 1 7644 7 8328 10 8896
6947 -2.1668 2.15527 9.36925 51 62 82 0.196435 6 2280 7 5318
4557 -5.78319 0.314248 8.55647 78 72 74 0.54726 2 5723 3 6466 1 4351
5933 -3.06115 1.23312 10.2496 77 92 129 1.04734 2 4301 6 1623 4 5520 9 7067 11 6448
5212 -6.45778 0.701222 8.37822 128 112 99 0.361102 2 1537 1 1848 4 2024
4559 -3.59393 0.43706 10.228 148 150 140 0.974685 2 5737 3 6476 7 6118 10 6756 4 8669 11 6081
5942 -5.34987 1.46589 9.98926 100 95 101 0.728412 5 4561 6 1742 7 4821 8 4934 10 5324 4 7544 3 6876 11 3221
4769 -2.6283 1.04861 10.2692 89 87 88 0.174284 5 7363 3 8133 1 8918 4 10730
4560 0.106342 0.501419 10.4625 125 122 116 0.476551 2 3977 3 6491 1 7694
6967 -1.30546 -0.830172 11.2454 152 150 138 0.323366 8 6046 7 5704 10 6303 9 6346
5286 0.978505 2.02709 9.63403 66 66 73 0.475413 2 2358 3 2429 1 2814
4561 -3.45748 0.518461 10.235 151 151 138 0.577498 2 5767 8 6489 3 6499 1 6329 6 5762 7 6147 4 7173 11 6130
4563 -4.72693 0.591225 10.2745 131 129 123 0.604365 8 6520 3 6524 1 6354 6 5782 7 6186 10 6812 4 7178
4773 -2.62761 1.20536 10.2465 95 96 88 0.549113 2 7322 3 8167 1 7909
4564 -1.33752 0.636211 10.9453 138 136 120 0.986231 8 6504 3 6528
7847 -5.27798 1.25054 10.049 57 61 67 0.420501 7 10222 10 10892
6964 -0.407157 -1.03801 11.4887 58 80 111 0.629171 8 374 7 5616 10 7507
4566 -6.14075 0.499902 8.51187 80 75 82 0.373498 2 5812 3 6544 1 6356 4 8684
5941 -5.37804 1.42588 9.99254 97 99 104 0.202964 8 1934 6 1729 7 2544
5284 -4.20574 2.00988 10.0661 59 67 87 1.06328 2 2298 1 2800 7 2936
4567 -3.45778 0.621001 10.0512 124 121 106 0.643631 2 7150 3 6547 1 7742 4 8737
5950 -0.702292 1.80119 10.8371 97 91 101 0.474458 1 2501 6 1861 4 2844
6968 -2.05611 -0.859678 11.118 168 163 152 0.432073 8 3954 7 5712 10 4178
5803 0.208473 -1.06261 10.7653 115 109 109 0.050701 8 337 6 350
4570 -3.56013 0.635635 10.1208 128 119 104 0.246272 5 5944 3 6560 1 6384 6 5814
7993 0.47549 1.24794 9.67623 63 66 59 0.476722 10 2522 9 5125 11 2796
7336 -1.58115 0.192028 10.9956 127 113 104 0.829769 7 1413 10 1530 9 1556 11 1779
4571 -2.70241 0.643377 10.1791 139 132 120 0.527967 2 5833 3 6564 1 6394 4 7247
7986 1.36603 1.10602 9.85221 111 116 87 0.883895 7 2300 9 5000 11 6120
4781 -3.43399 1.27014 10.0718 75 71 68 0.477863 2 6062 3 8204 4 5539
4572 -2.43046 0.652997 10.2555 122 110 98 0.468976 5 5957 3 6571 1 6401 6 5812 7 6198
7330 1.33669 0.3596 10.0186 61 56 50 0.572417 7 1463 10 1444 9 4463
6963 1.18461 -0.994011 10.2906 77 88 110 1.71631 5 435 7 5582 10 7468
4573 -2.35464 0.668943 10.3408 133 120 103 0.638419 5 5961 3 6574 7 6208 11 9960
4574 -6.52052 0.536684 8.39825 136 130 116 1.4159 2 5843 3 6577 6 4047 4 8694
5949 0.408867 1.46671 9.60522 54 49 55 0.660909 5 2033 6 1803 7 4883 10 7049 9 8413 11 8734
5292 -3.38719 0.975634 4.3407 65 72 99 0.280154 5 2401 1 2951
4575 -6.51805 0.535334 8.37734 136 130 116 0.226781 2 5844 3 6578 4 8695
4721 -5.47926 0.297566 10.1936 135 126 111 0.342589 2 7036 3 7883 1 7610
4576 -3.92826 0.70847 10.3942 72 67 51 0.476212 2 5849 3 6586 1 6412
5238 -2.92426 1.2158 10.2742 41 65 95 0.435077 8 1825 1 2147 4 2430
4577 0.248808 0.674327 9.84004 132 138 130 0.427629 2 5859 3 6587 1 6418
5747 -1.65928 1.12427 10.7818 120 116 117 1.04542 3 10901 1 10599 4 11876
4578 0.41409 0.68395 9.75943 119 110 108 0.362077 8 7953 3 6595 6 7096
4725 -2.77896 0.395343 10.3918 146 139 120 0.515329 2 7073 3 7916 1 7654 5 8223
4580 0.0947408 0.756099 10.5829 110 105 102 0.96147 2 4070 3 6601 1 7772 4 8810
4581 -3.88148 0.814108 10.4091 65 51 48 0.292138 2 5880 3 6617 1 6437 4 7290
7799 -5.96851 0.0495023 9.57233 134 135 139 0.562276 7 9050 10 10213 9 10821 11 12373
4582 -7.07208 0.637324 8.28323 134 133 103 0.370089 5 4244 3 6623 1 6426 6 4087 4 8727
5236 1.22327 1.18092 9.82029 120 108 94 0.37851 3 1833 1 2132 6 4297
4583 -7.07181 0.637804 8.27977 134 133 103 0.890756 2 5873 5 4245 8 4681 3 6624 1 6427 6 4088 7 4523 10 2262 4 8728
4729 -0.659406 0.56223 11.1015 130 127 113 0.119377 2 7107 3 7959 1 7700
5246 -0.844677 1.42768 10.9015 132 126 128 0.259504 3 1936 1 2255 4 2579
4585 0.813925 0.80271 9.81885 148 128 108 0.871426 2 5891 3 6632 1 6456 5 7306 10 9012 4 7362 11 11450
4586 -4.46805 0.8391 10.2872 72 71 76 0.81198 2 4100 5 6001 3 6633 1 6444 6 4104 8 4698 7 4548 10 5078 9 2167 4 7295
4733 -3.84934 0.565955 10.4657 60 46 59 0.357039 2 7124 3 7967 1 7702 4 8713
4588 -3.4738 0.838048 10.1382 120 122 118 0.564158 2 5892 3 6640 4 7315
7282 0.990796 -0.321288 10.0342 133 130 121 0.797564 7 739 10 599 9 4021
4589 0.186512 0.864707 10.1121 112 110 101 0.280971 2 7228 3 6646 1 7814 4 8858
4591 -3.83233 0.932852 10.3862 60 52 49 0.377622 2 5916 3 6661 1 6488 4 8837
4673 -4.28965 -0.963102 10.7143 147 138 107 0.679953 2 6671 3 7511 1 7241 6 6592 7 6990 10 7593 9 7834 4 8229 11 9609
4592 0.0896344 0.953018 10.5471 111 104 100 0.492393 2 5923 3 6662 1 6500 4 7383
4593 -2.80985 0.927628 10.3023 131 122 91 0.417715 5 6025 3 6665 1 6499 7 7495
5699 0.00793312 1.1302 10.9652 122 124 130 0.25122 3 9184 1 9601 4 11262
4594 -3.88141 0.938437 10.3917 67 60 53 0.152081 2 5920 3 6666 1 6493
4595 -3.88141 0.938437 10.3917 67 60 53 0.152081 2 5921 3 6667 1 6494
4677 0.39718 -0.524583 9.99052 167 149 110 0.904663 2 6746 3 7595 1 7347
4596 -0.743784 1.02542 10.9848 75 60 55 0.551036 5 6045 3 6682 7 7501
7751 0.696156 1.37879 9.67946 131 134 123 1.0263 3 6841 10 9200 9 10045 11 10970
4598 0.00807588 1.05291 11.0095 104 105 107 0.478746 2 5949 3 6688 1 7844 4 8893
5188 -6.09962 0.416532 8.71524 128 106 92 0.955565 2 1316 4 4989
4599 -0.209498 1.07643 11.0784 114 111 104 0.504777 5 6058 8 8035 3 6695 6 5918 7 7525 4 5437
4681 -0.0630113 -0.450354 11.2718 69 72 88 0.446022 2 6777 3 7623 1 7368
4600 -5.16714 1.08141 10.0977 118 117 113 0.547798 2 5983 3 6730 1 6567 4 8881
5198 1.25815 0.520188 9.92141 77 74 81 0.362405 3 1369 1 1647 6 1213 7 4272 10 6660 4 2020
4601 -6.78746 0.889108 8.28854 74 62 63 0.240789 5 4358 3 6732 1 6561 4 8841 2 5982
5707 -7.11053 1.39376 8.0848 180 168 147 0.530407 3 9373 1 9702 4 10878 1 9111
4602 -6.20405 0.899549 8.41255 96 74 59 0.252734 2 5984 3 6735 1 6564 6 4215 4 8856
7240 0.423964 1.49012 9.59963 127 129 133 0.871943 8 6851 3 4978 6 4470 7 6525 2 2008 5 2040 1 2403 10 8275 9 9350 11 10149
4603 -3.88419 1.14911 10.3479 66 65 61 0.194336 2 5998 3 6745 1 6592
4685 1.5238 -0.368819 10.1915 149 140 123 0.249176 5 6915 3 7657 1 7414 6 7782 10 9464
4604 -4.58636 1.18492 10.2025 78 73 71 0.535711 5 6109 8 6720 3 6755 6 5972
7234 -3.36632 1.90512 9.76324 120 137 156 1.28697 8 10836 7 10297 10 10690
4605 1.14113 1.15922 9.82663 93 92 104 0.88846 2 6019 3 6757 1 6605
4606 -6.94327 0.988843 8.15183 153 139 107 0.265823 2 6015 3 6768 1 6613
5196 0.234278 0.511153 9.72622 129 129 130 0.129303 2 1339 1 1645 4 1985
4607 -6.1716 1.00763 8.39741 90 76 65 0.476959 2 6017 5 6116 3 6769 1 7907 4 8909
4608 -7.07435 1.01838 8.20784 152 145 116 0.427541 2 6025 3 6782 1 7914
8125 -4.8263 1.02357 10.1662 127 131 117 0.149248 10 9804 9 9982 11 10974
4610 -5.92021 1.04305 8.42234 150 137 121 0.524706 2 6042 3 6788 1 6631 7 2381
5554 -7.10433 1.05746 8.18394 164 159 129 0.429024 2 6050 3 6804 1 6643
6071 0.989704 0.291739 10.0287 41 58 104 0.377985 8 4388 6 3842 9 7970 10 6592
4612 -0.0144762 1.40164 10.9947 54 45 62 0.439985 2 4328 3 6796 1 6646
6065 -6.10937 -0.00979292 8.59779 132 134 123 0.31756 5 5746 8 1082 6 3792
4614 0.735438 1.28409 9.70502 133 122 101 0.606091 2 6092 8 8139 3 6811 1 6660 6 7281 7 8622 10 9170 9 10016 11 11575 2 7364
7606 -3.20746 -2.88654 12.3679 102 112 139 0.705306 7 3435 10 6088 9 6038
4615 -0.243435 1.48134 11.0164 73 73 77 1.49029 2 6098 3 6818 1 6672
8123 0.483446 0.99295 9.72306 83 71 53 0.121222 10 9078 9 9948 11 11511
4616 -7.06732 1.12886 8.17983 157 147 114 0.865141 2 6095 5 4481 3 6824 1 6675 6 4328 4 8949
4618 -4.61505 1.40603 10.1526 59 59 57 0.334333 2 7385 8 6784 3 6834 1 7997
5562 -0.943411 1.7719 10.8025 116 115 108 0.479371 3 6918 1 6779 4 7641
4619 -1.5867 1.49833 10.7293 72 66 64 0.581443 5 6219 3 6835 1 6693 7 7668 10 9203 5 7476
6079 -5.91839 0.679069 14.8044 52 76 110 2.3325 2 5709 6 3920
4620 1.15269 1.40193 9.78255 90 94 102 1.22277 5 6243 3 6842 1 6695 4 9035
6073 -0.701419 0.372317 11.1359 72 66 63 0.188638 2 3881 8 4411 6 3861 9 6719
4622 -7.07117 1.18456 8.17482 154 144 110 0.647197 2 6113 3 6859 1 6701 5 4525 6 4361 6 6039 7 4787 9 5199
4623 -0.950367 1.57712 10.8348 109 108 99 0.612748 5 6245 3 6867 1 6718 4 7572
8077 -5.38844 1.08177 10.0524 118 127 110 0.39465 10 8151 9 8307 11 8715
4626 -4.58287 1.49583 10.1356 53 56 55 0.518519 8 4943 3 6878 1 6724 2 6144 6 4398 7 4831
5506 1.37451 -0.151231 10.128 113 95 92 0.489994 2 5498 1 6095 7 7060 10 8633 4 7028
4627 -0.697504 1.67765 10.8661 56 54 50 0.436347 5 6273 3 6892 7 7721 10 9239 9 9353
6023 -5.04258 -0.940115 10.5785 89 89 84 0.482552 2 3406 5 505 6 3415
4628 -0.983521 1.67617 10.8269 77 78 89 0.303963 2 4471 3 6895 1 6747
6017 -5.00546 -1.08019 10.5838 123 128 125 0.316075 5 3552 8 3930 6 3374
4630 -2.62937 1.61527 10.1583 77 72 69 0.312949 2 7472 5 6283 3 6912 1 8070
7558 1.40497 1.33658 9.78059 93 85 79 0.904339 8 1952 10 5271 9 5159 11 2768
4631 -5.20078 1.90429 11.1094 61 55 55 1.22559 8 6865 4 7646
5514 -2.49419 0.221717 10.4871 166 160 146 0.602648 3 6374 1 6203 6 5646 8 6374 10 7867 9 8059 4 7091
4635 -3.54883 1.85052 9.93179 107 116 126 0.180706 2 4617 3 6995 1 6885 4 7708
6031 -5.85035 -0.630134 9.25707 82 89 97 1.03027 5 5547 8 4081 6 3513 7 990 10 1141
4636 0.186234 1.88302 9.66855 94 98 113 0.365288 2 6296 3 7008 1 6895
6025 -4.3848 -0.848672 10.6615 134 140 140 0.460194 8 3990 6 3437 7 3844 10 748
4638 -3.7178 1.91768 9.85875 98 119 135 1.00728 2 6292 3 7012 1 8185
4640 -1.48358 2.01118 10.1857 33 36 51 0.343391 2 6307 3 7018 1 6910
8029 -5.91149 0.0599434 8.61056 183 167 170 0.512897 10 6695 9 6787 11 6144
7372 0.520229 0.923859 9.74782 115 96 90 0.375455 7 2136 10 2162 11 6059
4642 -4.33614 1.99127 10.078 89 96 104 0.316024 2 6303 3 7025 6 6199
6349 -5.88642 0.236409 9.27929 112 114 120 1.63857 5 4029 8 7831 6 6981 7 9079
5458 -3.40872 1.72991 9.95587 113 118 124 0.520823 3 5083 1 5082 6 4544 8 2147
4643 -6.304 1.6592 8.20839 82 90 101 0.457263 5 6383 3 7031 1 6933 4 7746
6342 -3.07399 0.0717815 10.5032 89 107 129 0.22875 5 7088 8 7753 6 6914 7 8264
5975 -8.55321 2.06421 8.69291 254 252 255 0.277154 5 4868 8 2330 6 2088
4644 -0.762475 2.10277 10.3057 90 97 106 0.210372 2 6320 3 7041 1 6935 4 9209
5969 -2.74656 1.93329 9.70737 80 89 120 0.449537 8 2312 6 2038 7 5110 10 5568
5312 0.365616 -1.81001 12.8243 48 52 95 0.366993 3 261 1 3649 4 8202
4646 -5.78286 2.14336 9.75442 74 87 96 0.919174 8 5191 3 7086 1 5329 6 4689
7510 1.38149 0.651246 9.96142 88 79 71 0.265553 7 1786 10 4768 9 6767
6337 -4.78051 -0.0793772 10.393 70 78 86 0.213477 5 7048 8 7724 6 6862 7 7207 10 7825
4647 0.838472 2.1638 9.52109 88 94 105 1.46757 2 7611 3 7094 1 9185 4 9227
8027 0.291283 0.492191 9.72726 81 87 73 0.566283 10 4748 9 6747 11 5701
6346 -4.37029 0.270816 10.4203 130 131 136 0.38893 8 7813 6 6974 7 7301
4648 -4.44937 2.12438 9.56658 74 84 104 0.67305 2 4759 8 6992 3 7096 1 6996 7 6669 10 7229
5977 -2.97676 1.97017 9.41416 48 60 82 0.125872 8 2385 6 2101 7 3052
5320 -3.34353 -1.17691 10.8974 42 44 50 0.199807 3 346 1 3700 4 4270
4654 -2.62434 -2.44599 12.3466 255 253 234 0.32966 2 5116 3 7385 1 8324 4 9392
4655 0.811641 -2.32187 11.2108 88 87 127 0.508017 2 7722 3 7387 1 7145
8109 -4.81472 1.96752 9.96975 79 81 78 0.686786 10 8355 11 8924
7388 0.439631 1.01691 9.70671 62 60 65 0.338267 7 2248 10 2291 9 4986 11 2476
4658 0.657696 -2.19058 12.7674 85 77 85 0.509291 2 6583 3 7410 1 7172 4 8181
6365 -5.92373 0.759 8.47485 81 72 79 0.219103 8 8006 6 7155 7 7494
5538 -2.87511 0.911499 10.2351 135 120 99 0.301694 3 4654 1 6491 4 7356
4659 0.413683 -1.93456 12.641 133 146 155 0.401738 2 6600 3 7429 1 7186 4 8192
6358 -2.82253 0.601011 10.3313 44 63 86 0.483799 8 7912 6 7064 10 7998
6055 -0.270082 0.0471821 11.2696 43 49 44 0.476067 8 4267 6 3717 7 5953
4660 -6.74077 -1.42864 8.75001 56 69 104 0.73565 5 5350 3 7432 1 7165 6 3302
6049 -6.04334 -0.265834 10.0889 104 101 94 1.25796 5 935 8 4215 6 3655 10 6607
5328 0.280672 -0.982191 10.6885 50 62 88 0.839636 3 461 1 3808 4 6714
4662 0.41439 -1.85375 12.6286 115 122 143 0.549839 2 6605 3 7438 1 5729 2 5167 4 6594
7590 -0.700562 2.14338 10.3093 50 67 83 1.07967 7 3131 10 5666 11 6829
6353 0.386988 0.485422 9.80486 78 82 83 1.57418 8 7868 6 7021 7 7331 10 8913 9 9030 11 9758
4663 -6.52267 -1.27679 8.7962 88 89 83 0.26486 2 6620 3 7450 1 7184
8107 -2.18385 1.87122 10.2081 64 68 68 0.331547 10 9308 9 9409 11 11113
6362 -2.21028 0.823042 10.7367 97 93 79 0.521074 8 9005 6 7123 7 8463 10 9042
4664 -5.49724 -1.34086 11.0278 36 47 66 0.688313 2 6627 3 7460 1 8385 4 9446
5546 -4.70782 1.02173 10.1891 134 137 130 0.420328 5 4344 1 6546 4 5398
4667 -4.56911 -1.19121 11.114 65 66 96 0.829963 5 5392 3 7479 1 7216 6 5260
6063 0.590085 0.134708 9.88881 125 120 101 0.611031 5 1097 8 6312 6 3780 7 7178
4668 -4.92898 -1.12651 10.5686 94 89 83 0.489379 8 7443 3 7482 1 7219
6057 -6.00139 -0.121255 8.64792 83 81 84 0.24401 5 3901 6 3730 7 1370
5336 -6.24698 -0.515087 8.68583 162 160 133 0.528281 3 4005 1 3884 4 4375
4670 -5.10083 -1.08231 10.5021 139 130 119 0.000258589 2 6656 3 7490
4672 -4.95827 -0.976722 10.5565 137 129 108 0.504495 5 6805 3 7510 1 7235 4 9469
8189 -0.758048 2.34732 10.21 47 61 71 0.352039 2 2544 10 7305 4 3350
4674 -14.2299 -1.54267 50.6843 85 93 102 1.22767 8 7553 3 7572
5618 -6.9311 0.778443 8.28605 149 151 138 0.619223 2 7244 5 6031 1 7825 4 9906
4675 0.131056 -0.583274 10.3415 254 253 238 0.857659 2 6724 3 7578 1 7329 4 8380
6135 -6.61708 1.55678 8.22538 117 118 122 1.19332 8 6873 6 4555 7 4923 10 7123
4676 0.0955354 -0.555269 10.4582 255 249 217 0.554318 2 6731 3 7583 1 7339 4 8389
6129 -5.31939 1.63767 9.9691 56 54 60 0.466874 8 4991 6 4477 10 5380
4678 0.19252 -0.49718 10.171 255 254 247 0.331616 2 6753 3 7603 1 8533
7670 0.973157 1.85689 9.59139 64 72 91 0.799363 8 2345 10 7212 4 3020 11 8903
4679 -3.77478 -0.469899 10.3608 92 80 69 0.508234 2 6767 3 7605 1 7338
8187 -3.09133 1.91667 9.68368 32 58 91 0.249628 1 2778 2 2295 4 3058
4680 -1.03335 -0.453835 11.1399 92 96 111 0.458921 5 6900 3 7618 1 7363 6 6695 7 8084 10 8641 9 9658
4682 -0.0222324 -0.441671 10.9987 119 116 106 0.152424 2 6778 3 7625 1 7369 4 8431
4683 -0.0710885 -0.384489 11.2724 111 113 101 0.424174 2 6812 3 7649 1 7399 4 9664
6143 -5.98062 1.9537 9.68856 78 90 112 0.541558 8 5118 6 4627 7 5036 10 5540 11 6795
4684 -0.0710885 -0.384489 11.2724 111 113 101 0.424174 2 6813 3 7650 1 7400 4 9665
6137 1.3546 1.73833 9.73506 52 60 61 0.91397 2 4569 6 4597 10 8342 9 9414 11 10208
4686 1.52365 -0.368128 10.1914 149 140 123 0.119722 5 6916 3 7658 1 7415 6 7783
4687 0.131867 -0.334449 10.3876 126 133 125 1.62875 2 5438 3 7661 1 8576 4 9673
5570 1.10833 2.02381 9.63426 30 40 47 0.743122 3 5254 1 6930 4 7800
4691 0.17261 -0.200456 10.3178 142 143 132 0.376873 2 6871 3 7702 1 8606 4 9706
6081 -5.91047 0.401737 10.0812 112 120 123 0.263339 3 6462 6 3924 7 4336 5 5847
4694 0.281849 -0.188075 9.90667 163 164 153 0.168598 2 7983 3 7713 1 7453 4 8510
7622 -5.96698 -1.17879 9.90269 144 149 150 0.933077 7 3756 10 6358 9 6447 11 8048
5924 -5.95894 0.782893 8.47878 106 89 99 0.596974 2 4173 3 1660 5 1612 6 1490 4 5285
4695 0.120169 -0.165175 10.4285 137 138 135 0.183648 2 6887 3 7718 1 8616
7976 0.615711 0.927812 9.77355 67 67 59 0.082842 7 2138 9 4916 11 2332
4699 0.218806 -0.13296 10.0607 110 98 100 0.548651 2 5506 3 7726 1 7485
6089 -7.09475 0.430729 8.33519 84 83 89 0.264158 5 1378 6 4001 7 1866
4702 0.0486588 -0.0727895 10.9217 127 127 117 0.332985 2 6919 3 7748 1 7505 4 9732
4704 -6.76688 -0.0648653 8.4871 149 145 136 0.405806 2 6930 3 7756 1 8610 4 9606
8093 -5.40522 -0.136331 10.3103 149 148 130 0.447822 10 8853 9 9013 11 9879
4706 0.105361 -0.0144125 10.6731 73 65 63 0.738597 2 6936 3 7762 1 8654 4 10567
5522 -5.95966 0.31005 8.52643 106 102 109 0.821548 2 5715 1 6256 7 4325 10 4876
4707 -4.74238 0.0105977 10.3961 137 133 121 0.609773 2 6944 3 7768 1 7506 6 5581 5 5720 4 9683
6039 1.54597 -0.273581 10.1854 83 81 79 0.377559 8 4098 6 3563 7 5788 10 6346
4708 2.30559 -0.00621939 9.94981 211 230 251 2.09336 5 7057 8 7665 3 7780 6 6833
6033 -5.88283 -0.614656 10.1989 85 102 122 0.472481 8 6155 6 3524 7 3956
4710 2.32226 0.0419855 9.97005 28 32 104 0.18968 2 6958 3 7791 1 7553
7574 -2.49869 1.72273 10.1472 109 114 117 0.558578 5 4688 10 5422
4711 -4.74134 0.0886935 10.3853 141 132 123 1.30908 2 6969 3 7792 4 8506
8091 -3.23073 -0.214225 10.4201 116 117 99 1.37741 10 8768 9 8941 11 8188
4712 -3.99981 0.0936189 10.5305 135 129 110 0.977708 5 7094 3 7797 6 6920
5530 -0.597643 0.678873 11.0774 132 125 113 0.584496 5 5928 1 6382 10 7966 4 7268
4715 -4.51271 0.211208 10.4105 74 60 60 0.397079 2 7014 3 7846 1 7575 6 5656 8 6378 7 6051 10 6692 9 6781
6047 -6.65695 -0.425146 8.62409 100 98 102 0.24274 8 4162 6 3607 7 4040
4716 0.14796 0.206553 10.4506 95 93 91 0.495715 2 7013 3 7850 1 7599
6041 0.414706 -0.289885 9.95175 140 136 134 0.589994 8 4108 6 3574 7 5822 10 6377 9 7810
4718 -4.36881 0.268195 10.4188 144 142 130 0.328628 2 7030 3 7865 1 7603
4719 0.100688 0.284006 10.6026 95 83 84 0.404447 2 5668 3 7873 1 8738
8173 -0.85244 1.35453 10.9066 63 56 58 0.633213 2 4314 8 6755 5 6152 3 4813 6 6003 10 8184 8 8110 6 7255 9 9261
4722 -3.89238 0.323328 10.5057 75 65 56 0.585512 2 7044 3 7885 1 7628 4 8614
5602 1.24451 0.0790765 10.0455 168 166 149 1.19204 3 7804 1 7563 4 4961
6119 -1.46808 1.26349 10.8045 58 53 59 0.332613 2 4276 6 4275 10 6946 5 6117
4724 -3.85251 0.392984 10.4993 67 57 56 0.400683 2 7069 3 7909 1 7637 4 8641
7654 -2.24189 1.06454 10.6734 116 110 99 0.549131 7 4657 10 6910 9 7011 11 6306
4727 -5.41317 0.423679 10.1828 123 117 95 0.52736 2 7083 5 7189 3 7932 1 7648 6 7011 7 7353 10 7984 9 8177 4 8630 11 8507
4731 -5.24715 0.530085 10.2003 72 60 64 0.384629 2 7116 3 7964 4 8678 2 5774
6127 -1.82204 1.6447 11.0143 62 65 99 0.412441 8 2004 6 4424
4732 0.0129803 0.585774 11.0336 49 51 63 0.733927 2 5775 3 7965 1 7708
6121 -4.58397 1.31716 10.1661 67 70 75 0.481818 3 6808 6 4321 4 7485
4734 -3.71986 0.569206 10.1486 121 131 134 0.351568 2 7130 3 7977 1 7712 4 8719
5910 -5.8102 0.697355 8.68172 112 120 113 0.738274 5 1539 8 4694 6 1409
4737 -2.531 0.594711 10.3919 124 134 145 0.496722 8 7905 3 7981 1 7718 10 7986 9 8174
5395 -5.00131 0.651298 10.1743 137 138 133 0.192229 3 1459 1 4516 6 1320 8 1470
4738 -6.42849 0.480803 8.43595 140 130 111 0.332247 5 5933 3 7992 1 7703 4 9824
4741 1.25433 0.622264 9.94209 137 128 105 0.30373 2 7160 3 8007 1 7751 6 8083 5 8290 7 9103 4 7291
7447 1.1366 1.85902 9.61249 51 66 81 1.04026 7 3046 10 3081 9 5477
4742 0.104426 0.700137 10.5295 75 67 62 1.10834 2 7167 3 8014 1 8835 4 9907
5908 0.652714 0.695851 9.81341 50 59 56 0.358917 8 1505 6 1355 7 1876 10 4851 9 4705 11 2023
4743 0.747002 0.649062 9.80731 98 95 89 0.784158 2 7170 3 8021 1 7761 7 8394 4 9915
5918 -4.00719 0.897046 10.3422 107 112 108 0.932157 1 4661 2 1567 6 1445
4745 -0.278402 0.77338 11.1167 95 100 102 0.177085 5 7268 3 8026 6 7091
5403 0.249731 0.748632 9.71913 89 77 81 0.232999 3 4590 1 4594 4 5330
4746 -0.0176381 0.815358 11.0985 61 57 54 0.962131 5 5976 3 8039 1 7778
7960 -5.94403 0.309431 9.45397 118 92 97 0.579581 10 1882 9 4761 11 2556
4747 -0.0150868 0.817575 11.1123 61 57 54 0.98169 5 5977 3 8040 1 7779 4 9924
7954 0.43854 0.370833 9.8275 82 88 75 0.330024 10 1577 9 4536 11 5553
4749 -6.4289 0.601848 8.40945 147 131 115 0.36779 5 7284 3 8044 1 7762 4 9861
5916 1.52328 0.885451 9.95544 68 64 53 1.2052 2 1576 6 1438 7 4525 9 6889 10 2028
4751 0.146194 0.764503 10.1983 117 120 109 0.423882 2 7195 3 8050 1 7781
5990 -2.19347 2.14601 9.42031 64 67 86 0.225168 8 2544 6 2251 7 3211
4753 -4.9056 0.807843 10.2033 128 127 110 1.07488 2 7200 3 8060 1 7790
5475 -7.08925 1.69472 8.01505 172 153 125 0.717257 3 2433 1 5282 4 5932
4754 -4.31882 0.826044 10.2865 127 122 117 0.359649 2 7204 3 8062 1 7793 4 8792
4755 0.271825 0.783357 9.67702 153 141 127 0.431171 2 8257 3 8064 1 7800
7527 1.43224 0.937143 9.91495 115 87 80 0.256502 7 2106 10 4995 9 4867
4758 -2.90547 0.886038 10.2085 82 74 57 0.535362 2 7231 3 8080 1 6485 7 7489 10 8080 4 5336 7 6309
5988 -3.07223 2.02991 9.03402 47 62 81 0.223224 8 2481 6 2202 7 5224 10 5701
4759 0.134141 0.923546 10.4056 110 108 102 0.555035 2 5911 3 8084 1 7824 4 8867
5998 -2.28003 2.11819 9.02466 42 47 62 0.711302 8 2608 6 2322 10 5833
4761 0.11233 0.97051 10.4862 71 65 64 0.0995496 2 7247 3 8099 1 7834
5483 -4.44049 -2.24719 12.0513 139 152 169 0.571933 8 3761 1 5656 4 6481
4762 0.111898 0.970311 10.4851 71 65 64 0.107283 2 5937 3 8100 1 7835
8034 -3.39999 0.825813 10.0944 134 144 130 0.599233 8 4699 9 6958 11 6290
4765 -2.90291 0.982691 10.2368 126 117 101 0.924699 2 8286 3 8116 1 7850 6 7179 4 9953
4766 0.228527 0.991223 9.83698 76 66 67 1.17663 2 5970 3 8127 1 8916 4 10742
5996 -2.52484 2.08908 8.85425 42 61 75 0.18461 8 2601 6 2317 7 5341
8157 -5.80528 0.905182 8.74635 137 116 121 0.325123 10 10626 9 10888 11 12444
5427 0.10051 1.00767 10.5048 123 120 121 0.62219 2 1630 3 1677 1 4714 4 5433
4770 1.08108 1.07101 9.87412 20 23 22 0.595997 5 7393 3 8143 6 8196
7479 -1.0779 -0.398141 11.1324 136 130 116 0.507554 7 862 10 4350 9 4194
6097 1.26483 0.706044 9.92817 64 61 71 0.549785 8 6571 6 4046 7 7401
4774 0.789794 1.17129 9.70739 147 130 116 0.198188 2 7330 3 8171
7638 -2.25838 -0.0188817 10.8925 131 127 118 0.467128 7 4091 10 6584 9 6656 11 5659
5940 1.29971 1.30045 9.80858 88 76 78 0.695401 8 1926 6 1698 7 4794 10 5255 11 8583
4775 -3.43448 1.19809 10.0724 88 92 94 0.728795 2 6023 5 6131 3 8173 1 6615
4778 -5.39088 1.24598 10.0347 113 109 100 0.600084 2 7333 3 8194 1 7927 4 8936
7992 1.3153 1.28594 9.81697 70 60 58 0.766742 7 2499 10 2518 9 5119
5594 -3.76063 -0.244661 10.3663 100 94 85 0.772297 3 6208 1 7419 4 10495
4779 -4.42342 1.27032 10.2083 118 119 111 0.459351 2 7338 3 8200 1 7935 6 7247 7 7607
5948 -6.47772 1.38755 8.31622 3 38 49 0.386343 2 2040 8 2011 6 1797 7 2623
4783 1.18207 1.34288 9.78682 129 121 97 0.424515 5 7474 3 8236 7 8636
5894 0.967228 0.532559 9.84162 118 118 116 0.786913 8 1311 6 1232 10 4738 9 6739
4785 -1.6867 1.54924 10.688 109 111 99 0.345804 2 7413 3 8262 1 8023 4 9038
5379 -6.87524 0.309639 8.35713 146 146 138 0.206688 3 4412 1 4342 4 7047
4786 1.60483 1.47107 9.81982 121 119 107 0.475463 2 8466 3 8268 11 12076
4787 -6.19893 1.2286 8.34151 80 66 53 0.297067 8 6790 3 8277 6 6057 7 6464 10 7025
7431 0.507045 1.58942 9.61219 59 60 59 0.37851 7 2775 10 2819 9 5323 11 6566
4790 -0.94813 1.6393 10.8243 114 109 97 0.429452 2 7440 3 8288 1 8039
4791 -3.10921 1.60053 10.1684 110 133 164 0.353319 8 8197 3 8324 1 8065 7 8682 10 9243 9 9351 4 9066 11 10193
5902 -1.38228 0.735246 10.9158 65 73 86 0.133767 2 1435 6 1323 7 1896
4793 -2.93614 1.6634 10.1872 84 71 61 0.881457 2 7487 8 8219 3 8342 1 8085 7 7732 10 8297 9 8440 4 9087 11 8833
5387 -6.12032 0.478973 8.50725 111 95 88 0.487981 5 1400 1 4464 6 1299 7 1889 10 2068 4 5037
4794 -2.93816 1.66376 10.178 84 71 61 0.0447929 2 7486 3 8343 1 8084
7944 -2.16139 -0.490066 10.6042 142 148 119 0.602206 7 844 9 4226 11 1145
4795 0.256601 1.61258 9.6541 110 120 122 0.44403 2 7503 3 8349 1 8083 4 9111
7938 -6.05572 -1.17778 9.45743 145 122 138 0.692103 10 630 9 4148 11 5475
4797 -2.97721 1.69667 10.1689 78 103 138 1.09839 8 8227 3 8358 1 6804 4 9108 11 8848
4798 -2.97721 1.69667 10.1689 78 103 138 1.09839 8 8228 3 8359 1 6805 4 9109 11 8849
5900 -5.18578 0.626711 10.1717 51 64 80 0.6576 8 1443 6 1305 10 2070
4799 -3.19034 1.71495 10.0649 73 88 119 1.69169 2 8526 3 8372 6 7385 8 8244
6183 -5.79266 -0.799552 8.7553 114 100 91 0.671202 8 6097 6 5369 7 5789 10 6432 9 6544
5974 -2.57856 1.99049 9.69035 38 47 59 0.264219 8 2371 6 2082 7 5152 10 5616
4801 -2.21923 1.82836 10.2043 103 115 115 0.625218 5 7572 3 8400 1 8142 8 8269 6 7418 7 8728 10 9299 9 9402 11 11105
5459 -1.75891 1.92043 10.7135 13 37 32 0.724588 3 2255 1 5111 4 7687
4802 -1.38927 2.10098 10.1649 50 58 71 0.548293 2 6323 3 8451 1 8201 6 6227 8 6984 7 7829 10 8388 4 7805 11 10285
4805 -1.33438 2.25518 10.1696 82 97 104 0.637108 2 8617 3 8470 4 7850
7511 -5.38158 0.292403 10.2284 95 90 97 0.419171 7 4267 10 4804 9 4729 11 2447
6180 -6.22408 -0.812683 8.66781 120 109 99 0.513643 8 6101 6 5366 7 5800 10 6446
4806 -6.49777 1.88902 8.21199 88 92 96 0.452613 2 6351 3 8483 1 9198
5972 -3.0511 1.95756 9.50537 40 50 70 0.121604 8 2358 6 2079 7 3018
5157 -2.59324 -0.273065 10.5428 117 109 107 0.288963 2 884 1 1103 6 817 4 4722
4807 0.187809 2.2486 9.66441 57 62 82 0.425338 2 7619 3 8485 1 9195 4 10247
5982 -3.06862 1.99807 9.21855 31 48 66 0.302636 5 2425 6 2145 7 3109 10 3136
4809 -0.90756 -2.45733 12.8449 77 86 114 0.380488 2 7726 3 8626 1 8333
6184 -6.42781 -0.818101 8.62375 114 104 101 0.563738 5 5491 8 6107 6 5370 7 3895 10 4420
5467 1.05301 1.97823 9.60831 111 121 133 0.0587061 2 4698 1 5212
4810 -3.71824 -2.21595 12.2026 25 52 63 0.625264 2 6574 3 8640 1 7150
8024 -6.12077 -0.715385 10.3073 127 129 144 1.2474 10 6490 9 6593 11 8211
7209 0.980026 1.88461 9.58964 93 94 101 0.518898 6 8940 7 9995 10 10698 9 11229
4811 0.755905 -2.28045 12.7736 123 123 121 0.546321 2 7743 3 8649 1 8347 4 9439
8018 -6.79288 -2.02171 11.139 181 180 171 0.880321 10 4011 9 6302 11 5127
6179 -2.07064 -0.824639 11.1405 104 97 92 0.223897 5 3631 8 6062 6 5348
4813 0.347486 -2.19638 12.7285 255 254 250 0.770622 2 7753 3 8655 1 8354 4 10371
5980 -8.44929 2.11505 8.77541 130 121 122 2.40334 5 2417 6 2119 7 2972
5165 -5.92442 -0.0137926 8.64425 75 60 72 0.290981 2 1050 1 1220 4 1308
4815 -0.282709 -2.14657 13.0347 254 250 237 0.795226 2 7762 3 8660 1 8361 4 10372
6199 -5.92466 -0.337749 9.52687 83 81 94 1.42198 8 7639 6 5502 10 9603
6054 -1.44187 -0.0399671 11.0706 128 129 127 0.289857 8 4243 6 3695 7 4060 9 6628
4817 -0.323015 -2.10897 13.186 255 254 239 0.687435 2 6589 3 8666 1 8367
4819 0.754831 -1.2033 10.1821 254 253 254 1.01163 2 6637 3 8689 1 8412
7591 -4.49729 2.17012 9.55658 76 80 103 1.75999 7 5202 8 2447 10 5672
6196 -4.51527 -0.382952 10.5247 94 85 86 0.169438 2 5411 6 5464 4 8345
4822 -6.82232 -0.614577 8.55216 154 151 141 0.373026 2 7854 5 7955 3 8745 1 9339 6 7778
6052 -0.866782 -0.0730769 11.1914 84 78 82 0.350069 8 4218 6 3675 10 6527 9 7932
5173 -6.20511 0.20955 8.55052 170 171 142 0.452639 2 1176 1 1388 4 4856
4823 -2.63847 -0.642959 10.6492 60 67 73 1.0246 2 7861 3 8759 1 8474 9 9665
6200 -5.92996 -0.340018 9.53184 83 81 94 1.37572 8 7640 6 5503 7 8996 10 9604 9 10369 11 11968
5547 -0.599345 1.13458 10.9833 131 131 123 0.3044 3 6716 1 6559 4 7426
4826 0.196951 -0.551933 10.1799 170 137 90 0.301632 2 7870 3 8797 1 9372
8104 -3.29522 1.43281 10.06 88 97 80 0.211421 10 9208 9 9314 11 10170
7225 -4.39768 1.05754 10.2527 149 150 152 0.507357 8 10739 7 10186 10 10862
4827 0.0135395 -0.481548 10.8023 116 116 108 0.106453 2 7907 3 8814 1 8535
8098 -5.78354 0.464218 10.0691 101 95 97 0.0179744 10 9003 9 9155
6195 -3.30475 -0.361421 10.4364 108 99 90 0.573487 8 6207 6 5459 7 5880 10 7691
4829 -4.37766 -0.408195 10.5387 140 125 103 0.256522 2 6787 3 8824 1 8530 4 9559
4830 0.0972367 -0.388921 10.5203 133 130 125 0.741245 2 7932 3 8841 1 9394
6060 1.3967 0.124873 10.0095 92 81 89 0.399919 8 6300 6 3763 10 6509 7 5951
5181 -1.60268 0.40152 10.9415 94 77 74 0.192731 3 1250 1 1498 4 1769
4831 -1.31135 -0.30563 11.124 132 119 102 0.511681 5 8033 3 8853 1 8578 4 10512
6006 -4.919 -2.15453 11.8959 51 77 115 0.325462 8 3782 6 3229 7 3547
4833 -3.24607 -0.209918 10.4368 118 110 97 1.83559 2 7977 3 8877 1 7429 6 7863 8 8734 10 8769 9 8942 4 8440
5491 -1.06801 -0.52708 11.346 55 77 114 1.80793 3 6118 1 5965 4 8370
4834 0.250842 -0.227519 9.96162 155 153 153 0.212786 2 7972 3 8878 1 8598 4 9698
4837 -5.85245 -0.159913 10.1966 133 127 113 0.25049 2 7987 3 8886 6 6846
7543 -2.19398 0.99728 10.3779 97 93 93 0.575947 7 4640 8 1697 10 5126 9 5001
4838 -1.46099 -0.117159 11.0727 118 100 86 1.03357 5 8072 3 8897 7 8989 6 8655 10 9572 11 11369
6004 -3.48988 -2.16215 11.8623 95 124 164 0.0916374 8 3759 6 3215 7 3511
4839 0.199487 -0.132318 10.1735 139 134 124 0.874878 2 6898 3 8904 1 8625 4 10548
6014 -6.29346 -1.30508 8.84514 126 140 139 1.0399 8 3873 6 3313 7 3689 10 6335 11 5443
4841 -3.90799 -0.089597 10.5793 118 117 107 0.115963 2 8008 3 8910 1 8619
5499 0.678604 -0.440485 10.054 123 99 96 1.03151 8 6136 1 5999 10 7567 9 8795 4 6916
4842 -7.11943 -0.0778709 8.41102 149 154 147 0.565913 5 7070 3 8920 1 8602 2 6927 6 6904 8 7760 7 7252 10 7892 9 8095
8050 1.017 1.93429 9.59907 98 106 101 0.680983 7 5197 8 2413 9 7316 11 8926
4845 -5.20565 0.0291514 10.2973 140 129 122 0.196714 2 8049 3 8946 1 8640
6012 -6.27413 -1.72684 9.30828 119 146 175 0.544913 8 3823 6 3272 7 3600 10 377
4847 0.700426 0.0679191 9.93815 163 148 127 0.316396 2 8064 3 8961 9 10323
5958 -1.72785 1.96484 10.5849 80 88 107 0.510362 3 2287 6 1972 7 2898 10 3002 9 5421
4849 -1.42877 0.136315 11.0275 153 145 132 0.206868 2 8072 3 8966 1 8693
5443 1.30412 1.50866 9.76003 89 73 69 0.923704 3 4962 1 4951 4 2748
4850 -5.37877 0.183756 10.2401 134 131 114 0.108229 2 8087 3 8975 1 8692
7495 -0.710579 0.182574 11.1775 135 137 128 0.255873 6 1003 10 4634 9 6668
4854 -7.13591 0.238898 8.33372 138 144 144 0.652687 8 7847 3 9011 6 8027 10 7980 9 8179
4855 0.283271 0.296716 9.80037 159 156 147 0.126138 2 8131 3 9013 1 8752
5966 -4.56662 5.38741 27.5564 96 103 120 1.64317 1 5217 6 2019
4857 -4.63823 0.365781 10.3497 143 139 132 0.125463 5 8220 3 9020 6 8024
4858 -3.90301 0.386354 10.4872 116 117 111 0.349914 2 8142 3 9022 1 8757 4 9807
8008 -6.00767 1.75911 9.7107 103 96 92 0.619785 10 5442 9 5339 11 6724
4859 -0.695356 0.478921 11.0983 136 131 127 0.149714 2 8154 3 9034 1 8782
8002 1.43435 1.52873 9.77288 90 83 67 0.914421 10 2722 9 5277 11 6470
4861 0.462265 0.446818 9.791 163 156 148 0.792183 2 8163 3 9045 1 8794 6 8711 4 9880
4862 0.074383 0.535804 10.6354 113 112 102 0.47079 2 8177 3 9053 1 9521
5964 -4.39456 1.97722 10.0304 98 102 122 0.29941 5 2285 6 1995 7 2909 10 5546 9 5420
4863 -5.06914 0.591692 10.2253 53 65 77 0.494442 2 8195 3 9072 1 8807 4 9847
4864 -4.77457 0.589432 10.2632 54 62 77 1.00644 2 8199 3 9074 1 9529 11 10023
7869 -1.44087 0.0779472 11.0467 92 72 66 0.677318 3 6322 1 6152 10 7789 8 6305 2 6959 8 7740 3 7788 6 6894 7 7197 9 8967
4866 -1.17266 0.750937 10.9208 124 124 126 0.608787 2 8225 3 9092 1 8840 7 9119 10 9732 9 9908
5298 -4.41949 2.15123 9.56428 43 61 75 0.894259 3 2622 1 3042 7 3116 10 3154 4 3316
4867 -0.410592 0.7687 11.0858 111 110 110 0.435105 2 8227 3 9094 1 8842 4 9909
5815 -5.82756 -1.01134 10.3912 110 103 105 1.0254 8 486 6 461 7 3819 5 3583 10 4313 9 4238 11 1490
4868 0.223661 0.68327 9.89809 110 96 95 0.703171 2 8231 3 9101 1 8847 4 10689
5809 -2.87722 -1.07043 10.6738 133 126 116 1.14669 3 404 6 395 7 443 7 447 9 801 4 670
4870 -5.21274 0.80554 10.1534 55 56 51 0.29698 2 7201 3 9123 1 8858 4 10674
7350 1.27432 0.683209 9.93351 107 97 87 0.439766 7 1829 10 1822 9 4651
4871 -4.38087 0.868218 10.2828 127 122 116 0.265732 2 7222 3 9133 1 8870
4872 -4.38087 0.868218 10.2828 127 122 116 0.265732 2 7223 3 9134 1 8871
4874 -0.16858 0.986154 11.0866 103 99 100 0.568195 2 8271 3 9145 1 8888 5 7321 6 8140 4 9950
5306 -6.6423 -2.55901 9.75843 103 67 207 0.409607 3 3635 1 3525
4875 0.620904 0.868311 9.77244 57 50 32 0.930623 5 8346 3 9148 1 8890 11 11989
5823 1.17249 -0.709564 10.0945 98 113 131 0.197926 8 440 6 492 7 3656
4876 -5.72246 0.998986 10.013 122 116 100 0.287583 2 8288 3 9164 1 9586
5817 -1.02805 -0.851488 11.3272 95 86 81 0.0764286 8 448 6 470 7 525
4878 -5.47063 1.01099 10.0639 123 116 112 0.137919 2 8290 3 9169
4879 -4.99113 1.01804 10.1263 123 123 112 0.304538 2 8957 3 9170 1 9591 4 10713
7821 -2.22272 0.041988 10.8936 121 104 101 0.749101 7 9853 10 10547 9 11086 11 12313
4882 0.251872 1.04886 9.78182 127 133 135 0.473274 2 8332 3 9200 1 8940
5250 -5.39742 1.36789 10.0057 99 96 92 0.375887 2 1865 1 2304 4 5567
4883 -5.88255 0.943453 8.46908 153 143 133 0.0532 2 8335 3 9210 1 8946
5767 -3.88676 -2.584 11.8847 132 132 141 0.366301 5 27 6 20 10 3840 4 4044
4884 0.0866452 1.192 10.5273 97 100 96 1.47277 2 8344 3 9212 1 10024 4 11273
5761 -5.67589 -0.309401 10.2555 87 87 89 1.20456 2 3630 8 920 1 994 5 900 3 924 6 848 7 1228
4886 -5.19047 1.16823 10.0788 108 110 97 0.393905 2 8343 3 9223 1 9627
7302 -1.68363 -0.394819 11.0099 109 94 86 0.322244 7 946 10 926 9 4254
4887 0.0828471 1.26686 10.5136 106 103 95 0.804632 2 8367 3 9230 1 9635
7819 -2.25545 -0.144619 10.5667 162 161 160 2.05144 7 9474 10 10538 11 12304
4888 -4.11669 1.27782 10.3832 68 86 107 0.292334 2 8368 3 9235 1 9640
5258 -4.61212 1.6241 10.1065 49 57 51 0.456048 2 2024 3 2129 1 2479 6 1811 10 2744 4 2772
4891 -6.23663 1.09058 8.36159 151 141 118 0.261591 2 8400 3 9259 1 8992 4 10778
5775 -0.16458 -2.26245 12.5782 106 101 121 0.612044 8 52 6 69 7 35 10 3806
4892 -3.24268 1.32189 10.1078 128 119 110 0.739738 8 9775 3 9260 7 9642 10 10347 9 10543 11 11629
5769 -6.71487 -2.39616 9.68447 235 255 254 0.377806 8 72 6 37 7 130 9 3880
4894 -2.62917 1.44861 10.1783 88 84 81 0.315529 2 8453 3 9292 1 9030 4 10843
4896 -5.3665 1.49192 10.0211 102 106 102 0.320229 2 8458 3 9310
7773 -2.16416 -0.0406461 10.9142 141 135 123 0.544809 7 9011 10 9600 11 10713
7628 0.520303 -0.14276 9.94248 157 160 141 0.518762 8 4169 10 6420 9 6451
4898 -3.2399 1.5538 10.0599 115 114 109 0.850209 8 9811 3 9327 1 9076 7 9276 9 10574 11 11662 10 9898
6605 -5.44575 0.189143 10.2358 118 119 111 0.411599 8 10415 6 9716 7 9884 10 10584
5202 -0.859125 0.650671 11.0389 156 146 143 0.502845 3 1405 1 1682 6 1270
4899 -3.42633 1.58665 9.99017 75 75 75 0.373803 5 8534 3 9336 6 8333 4 10873
6598 -1.66649 -0.00215747 10.9988 138 132 132 0.867831 1 10262 6 9688 4 11528
5719 1.5064 1.14028 9.87111 101 73 69 0.629555 3 10323 1 10030 4 10792
4900 -3.42574 1.58738 9.99341 75 75 75 0.274641 5 8535 3 9337 4 10874
5713 -4.10749 -1.99864 11.9564 108 103 110 0.418277 3 10144 1 9846
5568 -3.5957 1.93014 9.88437 114 130 156 0.259977 3 7014 1 6911 4 7750
4902 -6.689 1.37253 8.20135 161 148 122 0.572146 5 7517 3 9359 1 9099 6 7346
7254 -0.864902 1.12428 10.9465 119 120 116 0.394881 2 8315 5 8384 6 8178 8 9073 3 8131 1 7867 7 9184 10 9780 9 9961 4 8905
6593 -3.17846 -0.385842 10.4193 143 142 137 0.579098 8 10609 6 9663 7 10064 10 10765
4903 -5.18515 1.6511 9.97294 91 98 93 0.240725 2 8500 5 8546 3 9361 1 9697
7771 -3.17336 -0.593049 10.4626 72 95 115 0.546759 7 8085 10 9517 9 9698
6602 -4.55381 0.123234 10.4125 91 82 94 0.41901 5 9943 6 9708 7 10117 10 10808
4904 -2.87979 1.68423 10.2073 91 122 156 0.286438 2 8514 3 9364 1 9102
4906 0.110963 1.77041 10.2989 71 59 69 0.916654 2 7521 3 9381 1 9110
5721 -2.55629 1.3908 10.1626 131 134 141 0.636685 3 10369 1 10057 4 11302
5576 -2.85303 -1.91054 11.7639 47 60 91 1.72683 5 6712 1 7173 9 8712 10 9414
4910 0.841475 1.83567 9.57696 102 100 95 0.842301 2 8569 3 9432 1 9149 4 10193
4911 0.864602 1.84124 9.61857 102 100 95 2.10744 2 8570 3 9433 1 9150 6 8407 5 7605 4 10194
7853 -2.84989 1.75628 10.1723 72 63 60 0.65645 7 9968 10 10933 9 11207
7644 -2.49659 0.268472 10.4776 153 155 144 0.639294 8 4398 10 6666 9 6755 11 5878
4914 -6.77635 1.60828 8.12197 162 156 124 0.66491 2 8567 3 9447 6 7421
6621 -6.2663 1.33323 8.31268 132 130 131 0.580624 8 10796 6 9859 7 10261 10 10662 9 10944
5282 -1.44421 2.05208 10.1676 53 68 75 0.840908 3 2401 1 2796 4 3095 11 6786
4915 -1.75306 2.05726 10.5594 84 93 96 0.580557 2 8577 3 9449 1 9157 7 9345
6614 -5.28005 0.96563 10.1056 70 68 73 1.46833 8 10731 6 9792 7 10180 5 10025 10 10853
5799 -5.38862 -1.37548 11.0004 37 55 72 0.284486 8 358 6 328 7 3682
4916 -0.0096131 2.15852 10.8339 51 57 61 0.620211 2 7582 3 9455 1 9161 4 10209
5793 0.918584 -1.21751 10.2531 133 123 111 0.289906 3 338 8 271 6 279 7 224 10 162
5584 -6.49068 -0.379448 8.68404 61 79 117 0.370897 2 6806 1 7330 6 5491
4918 -1.73009 2.09281 10.455 53 60 66 0.12096 5 8623 3 9458
7334 0.443992 0.329157 9.84905 132 108 98 0.591881 7 1491 10 1517 9 4508
